# .PCD v0.7 - Point Cloud Data file format
VERSION 0.7
FIELDS x y z C4 C5 C6 C7 C8 color
SIZE 4 4 4 4 4 4 4 4 4
TYPE F F F F F F F F F
COUNT 1 1 1 1 1 1 1 1 1
WIDTH 500
HEIGHT 1
VIEWPOINT 0 0 0 1 0 0 0
POINTS 500
DATA ascii
-0.00213301 -0.000504234 -0.00638451 0.00019512 0.000518702 -0.0016198 -0.00311155 -0.00133709 2
0.00466923 0.00282697 -0.00133802 -0.0167903 0.00690369 -0.021836 -2.48292e-05 0.00184298 2
-0.00132139 0.00116117 -0.00434838 -0.00780835 0.00378652 -0.00942394 0.000228115 -0.00228332 2
0.037084 0.00166465 0.00167185 0.00112778 -0.0062323 0.00288448 0.00110858 0.000768191 2
0.000887265 0.000259872 0.0017071 -0.0013915 -0.00274349 0.000216777 0.00189307 0.000987458 2
0.00135508 -0.00205532 -1.82581e-05 -0.0029724 -0.000746181 -0.00190572 -0.00377752 -0.00224275 2
0.000633657 0.000405179 -0.00439978 -0.00180732 -0.00396972 0.000302886 -0.0040597 0.00171221 2
-0.00020855 0.00461804 -0.00892468 -0.0109971 0.0067881 -0.0188022 0.00409228 0.00242142 2
-0.00159473 -0.000157485 -0.00729785 0.00273154 -0.003162 0.00120896 -0.00099409 0.000958261 2
-0.000912363 0.00320415 -0.00349741 -0.0120374 0.00596501 -0.0198375 0.00507207 0.00338881 2
0.00804666 0.00260201 -0.0100471 -0.0137812 0.00645249 -0.0261363 -0.00229155 0.00146288 2
-0.000307728 -0.00017418 0.00135517 -0.00297684 -0.00157272 -0.00115981 -0.00167424 -0.00136662 2
0.0011559 0.000132265 -0.00125293 -0.00308129 -0.00225668 0.000606441 -0.00337271 -0.000795367 2
0.0340467 -0.000382966 0.00409307 0.000736199 -0.00923732 0.0082285 -0.00169595 0.0125588 2
0.000327993 9.74582e-05 -0.00992659 0.000653937 0.000580491 -0.00245239 0.00243161 0.000684673 2
-0.00315156 0.00477499 -0.0051726 0.00232345 4.1444e-05 -0.00281092 0.000416464 -0.00124459 2
-0.00115042 0.0012113 0.000666375 -0.00211104 -0.0028896 0.00231255 0.00201258 -0.000389163 2
0.0023162 0.000146003 0.00555429 -0.00479095 -0.000859918 -0.0019545 -0.00255632 -0.00150489 2
-0.00122769 0.00232808 -0.0121998 -0.00123641 0.00493324 -0.0122518 -0.00298662 -0.000132808 2
0.00105616 0.00145407 0.00068716 -0.0119926 0.00445235 -0.0161176 0.000279774 0.00111027 2
0.0461063 0.00422174 -0.000180955 0.00410346 -0.0122189 0.00295201 0.00388683 -0.000665087 2
0.000210496 0.000232121 -0.0023026 -0.00143978 -0.00156922 0.00383243 -0.030299 0.101959 2
-0.000849315 -0.000653782 0.00267321 -0.00284065 -0.000601098 0.000699068 -0.000388309 0.00143739 2
-0.00166244 0.00142275 -0.00161159 -0.001269 -0.000906517 0.00026416 -0.00200411 -0.000705993 2
-0.00142368 0.0010936 0.000220676 -0.000832358 -0.000476909 0.0016367 -0.00338029 0.0016587 2
-0.000367729 0.00284867 -0.0115626 -0.00484557 0.00376412 -0.0103506 -0.00360113 -0.000909541 2
0.00460916 3.33536e-05 -0.00690416 -0.0167336 0.00604281 -0.0241223 -0.00538342 0.00172846 2
5.16812e-05 -0.000224749 0.00152413 -0.000996408 -0.00144803 0.00201822 0.00130987 -2.06105e-05 2
-0.00167378 0.0029303 -0.0156727 0.00649524 -3.932e-05 0.00100244 0.000456974 -0.00205914 2
-0.000740963 4.27052e-05 0.00604073 -0.0025241 -0.000967585 0.00200772 -0.00220868 -0.00117254 2
-0.00109327 0.0013553 0.00248539 -0.00325556 -0.00466817 0.00357007 0.0013534 0.000742495 2
0.0380651 0.00186869 -0.00434826 0.00607657 -0.00238869 -0.000179801 0.00122233 0.00104766 2
-0.00140692 0.000799117 -0.000344121 -0.00533032 0.000957492 -0.00885815 -0.00338237 0.00214874 2
-0.000256637 0.0022118 -0.00469164 -5.13001e-05 0.0010503 -0.00170821 -0.000493241 -0.00132155 2
-0.00145486 0.000273447 0.000154458 -0.00283315 -0.000784005 0.00113793 -0.00257761 -0.0014801 2
-0.000461526 0.00112341 0.00293337 -0.00072623 -0.00405951 0.00172297 0.000805559 -0.00234605 2
-0.00245526 -0.000790833 0.00156993 -0.00267824 -0.00062124 0.00217122 0.000439422 0.00264778 2
-0.00065002 0.00080565 -0.00393803 -0.00126748 0.00237943 -0.00339859 -0.00255218 0.00111738 2
0.0325759 0.00207813 0.00158067 0.00402446 -0.00599906 0.00364459 0.000618139 -0.00478273 2
-0.000723698 -0.00148025 -0.00672903 0.00125613 -0.00202434 0.00196045 -0.000407755 0.00204897 2
6.17022e-05 0.000151433 0.00252095 -0.00215723 0.00233424 0.00340595 -0.00268736 -0.000320478 2
-0.000527991 0.00304224 -0.0115602 -0.00225822 0.00237579 -0.00997515 -0.000536012 0.00125123 2
-0.000383812 0.00152135 0.0041895 -0.000122238 -0.00059572 0.00136547 -0.000255313 -0.00101315 2
-0.000219728 0.00202018 -0.00108007 -0.00341334 -0.00156189 0.000282328 -0.00569971 -0.00763957 2
-0.00058027 -0.00133124 0.000213178 -0.00133302 0.000982553 -0.00113182 -0.00120369 -0.000560341 2
-0.000857339 0.000714044 0.00088437 -0.00373163 -0.000601611 0.00131463 0.00147752 -0.00394306 2
0.00182595 -0.000541828 -0.00681917 0.000631422 -0.000178786 -0.000930676 -0.00478585 -0.00139639 2
-0.00119901 0.00161565 -0.00180964 -0.0112959 0.00639964 -0.014229 -9.67982e-05 -0.00118838 2
0.000533267 0.00234711 -0.00414515 -0.000735206 0.00153763 -8.1082e-05 0.00202227 -0.000510615 2
0.0204824 -0.000399041 -0.010827 0.00689628 -0.00102274 0.00057972 -0.000341094 -0.00206933 2
-0.000811796 4.21994e-05 0.00605853 -0.00251464 -0.00352708 0.000416444 -0.000378539 0.000104671 2
-0.00191014 0.00199349 -0.000104479 -0.00209891 -1.30643e-05 0.00190026 -0.00215629 -0.000692524 2
-0.000787138 0.000244494 0.00178729 0.000363723 -0.00149729 0.0017098 -0.00103724 -0.00220471 2
0.000499434 0.000875615 0.00422065 -0.00301781 -0.00113206 -9.54326e-05 -0.00159126 0.000769738 2
0.00126248 0.00143976 0.00308651 -0.00372243 0.000275682 -0.00307605 -0.00262358 0.00569525 2
0.000184624 0.00231269 0.00107012 -0.00758044 0.00181771 -0.00820437 -0.00569369 -0.000465484 2
-0.000907966 -1.78017e-05 -0.00343679 -0.000307484 -0.00133859 0.00109951 -0.000650923 0.00229252 2
-0.00144742 0.00300621 -0.0040354 0.000345126 -0.00156022 0.000456317 -0.00297339 -0.00128238 2
0.000321742 0.00159288 0.000769949 -0.00483456 -0.0011347 -0.00154298 -0.00216216 7.42122e-05 2
-4.15696e-06 0.00203926 -0.00581997 0.00195797 -0.00181546 0.000373794 -0.000372501 0.00286488 2
0.000575613 0.00339953 -0.00580332 -0.0142297 0.00529783 -0.0214741 -0.000436015 -0.00139214 2
0.00304256 0.00191182 0.000511857 -0.00768902 0.00170465 -0.00935477 -0.00218612 0.00566163 2
0.000144845 -0.0119194 0.0164179 -0.0135141 -0.00470132 0.00250465 -0.00177566 -0.000924057 2
-0.00243828 0.000756446 -0.0107654 0.00732579 -0.000486737 0.000292434 0.00130189 0.000293794 2
-0.000420121 0.00250489 -0.00804823 0.00158025 -0.000328816 -0.000114233 0.00172852 0.00147974 2
0.00184262 0.000394647 0.000896905 -0.00094193 0.000308387 -0.00126529 -0.00271723 -0.00274349 2
-0.00108716 0.00302186 -0.00632067 0.00427138 -0.000900162 0.000465625 0.000419069 0.00144038 2
-0.00209752 0.00104145 -0.00650175 -0.00121261 0.00095854 -0.000277412 0.00678908 -0.000833178 2
-0.000975494 0.000463412 0.00312155 -0.00291371 -0.00144199 0.00118105 -0.00188743 0.000772414 2
0.0109889 0.00462104 -0.0004109 -0.0244882 0.0178708 -0.0396666 0.00267888 -0.000300429 2
-0.000232624 0.000124487 -0.00450479 0.00117835 -0.000555552 0.00210916 0.00121756 -0.000950391 2
0.00128682 0.00183652 0.0022287 -0.00815587 0.003738 -0.00878187 0.00079752 0.0011637 2
0.00119508 0.00056236 0.00253522 -0.00313004 0.000252619 -0.000279663 0.000713136 -0.00421237 2
-0.00222567 0.00141516 0.00189832 -0.000753596 -0.00138117 -0.0003291 0.00134007 -0.00354478 2
0.0303689 0.00107111 0.00187014 0.00302886 -0.00632188 0.00139059 -0.00288182 0.00366652 2
0.000614414 -0.00134736 0.0035831 -0.00453944 -0.00207649 0.00151186 -0.00112137 0.00310591 2
0.000115385 -0.000283618 0.00296724 -1.27811e-06 -0.00192036 0.00233027 -0.00235203 0.00062941 2
-0.00116706 0.00228606 0.00328931 -0.00463328 -0.000747466 0.00137826 -0.000990351 -0.00326211 2
0.00184575 -0.00146455 -0.0124918 0.00547216 0.000432576 0.000712947 0.00148169 0.00100584 2
-0.00116735 0.000991884 0.00396115 -0.00323204 -0.00149953 0.000508257 -0.000241022 0.00368971 2
0.00154253 0.0024325 0.00276885 -0.0106266 0.000471374 -0.0153719 0.00405709 0.0143814 2
-0.00129776 -0.000323282 0.00100844 -0.0018977 -0.00110059 0.00129084 -0.00260892 -5.64015e-05 2
-0.00148536 0.0012248 0.00277227 -0.00140168 -0.0037551 -0.000141649 -0.000546644 -0.00225528 2
-0.00183845 -0.000775152 0.00368819 -0.00208517 -0.00493835 0.00207642 0.0001489 0.00221487 2
-0.00185125 -0.00142044 9.01585e-05 -3.15958e-05 -6.65105e-05 -0.000136655 0.000146563 0.000117106 2
0.00209021 -0.00075953 0.00199012 -0.0013428 -0.00199916 0.00155692 -0.000830677 0.00429723 2
-0.000698028 0.00142573 -0.00491136 -0.000864066 -0.000739133 0.00111949 -0.000236076 0.0053703 2
-0.00105234 0.00386793 0.00165866 -0.00205014 -1.45891e-05 0.00163778 0.00146699 0.00141259 2
-0.00102652 -0.0018644 -0.00882875 0.00346275 0.00067807 -0.00128871 0.000334824 -0.00158075 2
0.0525853 0.00103544 0.00292029 0.00233577 -0.00641095 -0.00104689 0.000647167 0.00114168 2
-0.00136539 0.00056711 0.0018999 -0.00262217 -0.00110015 0.00106212 -0.00297527 0.000850488 2
0.0461706 0.00193238 0.00583413 0.00311859 -0.00352097 0.0018182 0.00584059 0.00150851 2
-0.00107355 0.00134742 0.00317797 -0.00103417 -0.000497566 -0.00144071 -0.00403734 -0.00022983 2
-0.00327875 -0.00173694 -0.00699798 0.000971701 -0.000860366 0.000378027 -0.00117937 -0.00194916 2
0.000352363 0.0016662 -0.00648262 -0.0105575 0.00573004 -0.014116 -0.00167361 -1.67445e-05 2
-0.000318608 0.000451949 0.00248404 -0.00295995 2.49892e-06 0.000710496 -0.0027348 0.000177755 2
-1.77754e-05 0.000912856 -0.00233732 -0.00170747 0.00114348 -0.00158425 -0.00194026 0.000845636 2
-0.000967603 0.00021828 -0.00079094 0.000575642 -0.00260545 -0.000224531 -0.00177101 -0.00220051 2
0.00214203 0.00235664 -0.00142899 -0.0012613 0.00113412 0.000365868 0.000614509 -0.00065386 2
0.00294972 -0.00150341 -0.00620115 -0.00276128 -6.04331e-05 -0.00334304 -1.97128e-05 -0.000338479 2
0.00772857 0.00175999 -0.00848316 -0.0098194 0.00607918 -0.0211912 -0.0022009 0.00153449 2
-0.00336028 0.0014982 0.00522017 -0.00370381 -0.00233641 0.00208933 -0.00139752 -0.000945956 2
0.00120319 0.00204203 0.00168531 -0.00979841 -0.000741658 -0.00388868 -0.0044218 -0.00184524 2
0.000699271 0.00171175 0.00321391 -0.00360051 0.00229574 0.000510348 -0.000584162 0.000755496 2
0.009667 -0.000176171 -0.00465704 0.00103603 0.0029716 -0.00562833 -0.000912343 0.00237227 2
0.00161753 0.00125251 -0.000199245 -0.00156789 0.000623913 0.000780957 0.000789644 0.000792108 2
-0.00176175 0.00388509 0.00123097 -0.000502801 -0.00100484 0.00161415 -0.00180708 0.000164943 2
-0.00116001 0.00156166 0.00263772 -0.00351637 -0.00279806 -0.0028292 -0.00199443 0.00239288 2
-0.00151014 0.00199203 0.000949806 -0.00257117 0.000659496 -0.000887966 0.00042052 0.00358311 2
-0.00176968 -0.00110826 -0.00359514 0.000155346 0.00024013 -0.000229574 -0.00465825 -0.000202043 2
-0.000749256 0.000457082 0.00122227 -0.00520268 -0.00018004 -0.0019302 0.000926128 -0.000320624 2
-0.000740884 0.00141471 0.00446169 -0.0077955 -0.0022091 -0.00407128 -0.00265084 0.000964751 2
-0.00123986 0.000378643 -0.00942231 0.0042876 -0.00055694 0.000559166 -0.00160193 0.00129639 2
-0.00049383 -4.91878e-06 0.00114713 -0.00100466 -0.00162078 0.00330817 -0.000303596 0.00268883 2
0.0014953 0.00183974 0.000472552 -0.00457642 0.00299107 -0.00203195 -0.00133011 0.00176963 2
0.000401204 0.0016695 -0.00390055 0.0023144 -0.000247741 0.00212142 -0.00304485 0.000816496 2
-0.00147525 -0.000296868 -0.0057352 0.00160351 -0.00103255 0.00190599 -0.00305707 -0.00227572 2
-8.97309e-05 0.000475229 -0.00805454 0.00128703 0.000300872 0.000414246 0.0011959 0.00298789 2
0.00362771 0.000135056 0.000701191 -0.00457987 -3.06602e-05 -0.000994159 -0.00244969 -0.00257468 2
-0.0017827 0.002752 0.00268912 9.2943e-05 -0.001946 0.00491893 -0.000617593 0.000449105 2
-0.00134338 0.00277209 0.00311489 -0.00478699 -0.00135415 0.00124547 0.000279548 0.00213123 2
-0.000878824 4.54483e-06 -0.00490935 0.00120867 8.52134e-05 0.00049174 -0.000867056 -0.00220279 2
-0.0022612 0.00275778 -7.21828e-05 -0.000829358 -0.000231385 0.000980956 -0.00255822 -0.000537518 2
-0.0013009 -4.14575e-05 -0.0111442 0.00596059 0.000851128 -0.000410815 -0.000257952 -0.00165331 2
-0.000607539 0.000884216 -0.00465632 0.00247687 -0.00136944 0.000567027 0.00144864 0.00117875 2
-0.000543348 0.00135058 -0.000817218 -0.0092402 0.00341417 -0.0116435 0.00150586 -0.00188736 2
0.00243465 0.000299866 -0.00738736 0.000609449 0.00395264 -0.00593804 0.000811483 0.000742324 2
0.000284263 0.00278787 -0.000784786 -0.00874307 0.000745202 -0.00309596 -0.00051133 -0.000600904 2
-0.000785606 -0.000681497 -0.00627696 0.00309845 -0.000344123 0.000966259 -0.00118134 -0.000644283 2
-0.00118951 0.00180013 0.00392163 -0.00493944 -0.00266282 0.000617405 3.753e-05 -0.00246937 2
0.000104605 0.0013967 0.00294871 -0.00400559 -0.00139954 -0.00330775 -0.00540251 -0.00105864 2
-0.00108868 0.00118233 0.00156996 -0.0107373 0.00366966 -0.0116433 0.00196622 -0.000948989 2
-0.00105487 -0.000607858 -0.00436803 0.00244679 0.00260643 0.000849091 0.00205963 0.00180032 2
-0.000505192 0.00154038 0.00262246 -0.00356322 -0.00269507 0.00262272 -0.00307017 -0.000654879 2
0.0498913 -0.000986464 0.00114695 0.00173039 0.0028682 -0.000317804 0.00437175 0.000349168 2
-0.00220405 -0.00184201 -0.00984331 0.00411594 0.000176769 -0.00217415 0.00186566 -0.00304159 2
-0.00114243 0.000561793 -0.00401073 0.00172364 -0.00116668 0.00107899 -0.000386543 -0.000816645 2
8.05771e-05 0.0012383 0.000855994 -0.00229699 -0.00098829 0.000823161 -0.00476456 -0.00359135 2
-0.00052162 0.00149825 0.00307469 -0.00295187 -0.00275202 0.00311027 0.00153213 -0.00166426 2
-0.000975067 0.00135129 -1.78051e-05 0.00100864 -0.00089764 0.00233709 -0.00354262 -0.000696422 2
-0.00218426 0.0013213 -0.00352222 -0.000994614 0.000505466 0.00213408 0.00422961 0.00292686 2
-0.00166155 -0.000350365 -0.00166586 -0.00238174 -0.000945816 0.000778755 -0.00426088 8.52732e-05 2
0.0390931 0.00182792 0.0070061 0.00105693 -0.00681052 -0.00121937 -0.000174247 -0.0023019 2
-0.00108276 0.00162183 -0.00505015 0.00167405 0.000331271 0.000939947 -0.00224365 -0.00411416 2
-0.00118229 0.00153264 -0.00279878 -0.00107804 -0.00191612 -0.0011426 -0.00100929 0.000895863 2
-0.000843697 -0.000338396 -0.00834602 -0.00323402 0.00244852 -0.00478363 -0.00307145 -0.00125233 2
0.00210751 0.000905726 -0.000131917 -0.0059895 0.00242995 -0.00239653 -0.000989278 0.00491273 2
0.000944286 0.000967194 0.000249243 -0.00158337 -0.000297812 0.000241105 -7.00187e-05 -0.000586629 2
-0.00104348 0.0019065 0.00278707 -0.00124963 -0.00083392 -0.000388843 -0.00220416 -0.00177638 2
0.000511169 0.000549997 0.000425673 -0.00982354 0.00243848 -0.00820661 -0.00297434 0.00195285 2
0.00734108 0.00321585 -0.00184188 -0.0181477 0.0103268 -0.022584 0.00136224 0.00129901 2
0.00309536 -0.00229341 0.00354378 -0.00624987 0.0044529 -0.000448666 0.000844127 -0.000770918 2
-0.00221694 0.000832125 -0.0129053 0.0067069 0.000617239 0.000789823 -0.0010765 0.000568818 2
-0.0018557 -0.000229205 0.0030986 -0.00279933 -0.00125343 0.00180929 0.00127163 -0.000917331 2
-0.00107176 0.000987341 -0.0037212 0.00181882 -0.00111385 0.00112242 0.000365139 0.002251 2
1.31178e-05 0.00167198 0.00338372 -0.00164489 -0.000311498 0.00420183 0.000872258 -0.00463048 2
-0.000233382 -0.000771552 0.00271049 -0.00336961 2.20516e-05 0.00154591 -0.00789851 -0.000256945 2
0.00379583 0.00285615 -0.00221044 -0.00094254 5.18466e-05 -0.00345687 -0.00131727 2.74589e-05 2
-0.00154287 0.00289295 0.00422213 -0.00338193 -0.00122437 0.00293867 0.00196543 -0.00246979 2
8.84702e-06 0.000638413 -0.000976145 -0.00230344 -0.00267219 -0.000246698 -0.00361672 -0.00359804 2
0.042136 0.0019586 0.00646444 0.000945769 -0.00627162 0.000588456 0.000935285 -0.00256836 2
-0.000233287 0.000131195 0.00336169 -0.0039743 0.000840564 -0.000655075 -0.00426116 -0.0013255 2
0.0397341 0.00320218 0.00173251 0.0014689 -0.00714671 0.00300308 0.00253103 -0.00107668 2
0.0292376 0.00124645 -0.00164325 0.00231594 -0.00307351 0.00181085 0.00472746 0.000408906 2
0.0411206 0.00259775 0.00472294 0.004175 -0.00612822 -2.52694e-05 0.00205248 0.00231693 2
0.043114 0.00132807 -0.00332571 0.00430866 -0.00651715 0.00365597 0.0027431 -0.001532 2
-0.00245792 0.00214268 0.00226342 -0.000475498 -0.000646023 0.00137852 0.000587092 -0.0013075 2
-0.00175542 -0.000285079 0.00404619 -0.00202597 0.000977206 -0.00242717 0.00047954 0.000824457 2
-0.00114924 0.0025074 -0.00583278 0.000191458 -0.00169295 0.00163704 -0.000178424 0.00171779 2
0.0378341 0.00274995 -0.00748309 0.0104722 -0.00434183 0.00081364 0.00198165 -0.000334882 2
-0.00192371 -0.000306378 -0.00280407 -0.00024894 0.000355524 0.00210956 0.000895996 0.000105537 2
0.00418959 0.00323714 -0.0102855 -0.0158341 0.00756806 -0.0192865 0.000898546 0.000878498 2
-0.00156688 -0.00109362 0.000112224 0.000629643 -0.0031658 0.00166101 -0.00207276 0.000197789 2
0.032642 0.00253342 0.00291783 0.00239172 -0.0051115 0.00196559 0.0019778 0.00108037 2
0.0029878 -0.00147241 -0.00284865 -0.00393697 -0.00172042 0.00124588 -0.00255543 0.000307199 2
-0.0022504 0.00135407 0.00284844 -0.00318609 -0.00195331 0.00352602 -0.000808695 0.000310021 2
-0.000779463 0.000331528 -0.0097482 0.00307989 0.00449229 0.00126122 -0.00247406 -0.00277622 2
-0.000306428 -0.000743387 0.00226573 -0.00346791 -0.00233488 0.000672272 -0.0024902 0.00203053 2
-0.00101762 0.0027209 0.00364615 -0.00281619 -0.00324234 0.000673815 -0.000325483 0.000263481 2
-0.000964081 0.000951942 -0.00781789 0.00147447 -0.000922535 6.33752e-05 0.00127372 -0.00117585 2
-0.000927525 -6.34315e-05 0.00330652 -0.000331073 0.000334839 0.00289508 0.00279351 0.00171412 2
-0.00146675 -0.000409391 -0.00258559 0.00157814 6.67197e-06 0.00127714 -0.00201026 -0.000603797 2
-0.00219348 -5.57451e-05 -0.00708016 0.00196759 0.000539284 0.00201041 -0.00136812 -0.0001211 2
-0.000786603 0.00342677 0.00209644 -0.00332532 0.00132305 0.00135153 -0.0017442 -0.0035967 2
-0.00136829 0.000102371 0.000472369 -0.00534834 0.000804324 -0.00340492 0.00189579 0.000141724 2
-0.00158105 0.00233617 -0.0100589 0.00558779 -0.0011417 -0.00185281 2.41084e-05 4.37169e-05 2
0.000332153 0.000636112 -0.000508529 -0.00335004 -0.00290473 -0.0015497 0.00175084 -0.00565502 2
-0.000367964 0.00245189 0.00222264 -0.00288176 -0.00143206 -0.000460463 0.000889847 0.00101614 2
-0.000896278 -0.00120419 -0.00726242 0.000213087 -0.000968078 0.000774643 -0.000443907 -0.00301786 2
-0.00171563 0.000823906 -0.000664086 -0.00164208 -4.51072e-05 -0.00251758 -0.00207538 -0.00185889 2
-0.0016689 0.000846586 -0.00800661 0.00344285 -4.11324e-05 0.00386606 0.00205069 0.000846655 2
-0.000126823 0.00057153 -0.00669547 0.00176827 -0.000641939 -0.0036995 -0.000854678 0.000136463 2
-0.000847386 0.00192718 -0.000809394 -0.00135374 0.0015991 0.000152537 -0.00022932 0.00347807 2
-0.00119651 0.00173818 -0.00405889 -0.000450538 0.000212921 0.00253243 -0.000279606 2.23577e-05 2
-0.000211891 -0.00010733 0.00465234 -0.00317311 -0.00104398 -0.00019072 0.000219596 -0.000556069 2
0.00245851 0.000218525 -0.0046987 -0.000848484 0.000353602 0.000262427 -0.00317087 -0.00171525 2
-0.00186148 -0.00097729 -0.00533188 0.00169385 -0.000330905 0.00181928 0.000349972 -0.00390429 2
-0.000247186 0.000207378 -0.00722923 -0.00560988 0.0033205 -0.0083642 0.000304104 -0.000604602 2
-0.000388725 0.000687281 0.0024529 -0.00209801 0.00102093 0.00213297 -0.000337841 -0.000751094 2
-0.00234095 -6.52516e-05 -0.00648232 0.00449131 -0.000862055 0.000221574 -0.00217397 0.000639376 2
-0.00360071 0.00117848 0.00244147 -0.00201797 -0.00077396 0.00328062 -0.0019014 0.00266587 2
-0.00152362 0.000904723 0.00137263 -0.000327654 -0.0011553 0.00138749 -0.000258305 -0.00245828 2
-0.00123834 -0.000771638 -0.000644148 -0.00263431 -0.00121141 -0.00296412 -0.00149158 0.0015748 2
-0.000209238 -6.50674e-05 0.00428969 -0.00194803 0.000286751 0.0029511 0.000299782 -0.00143727 2
-0.00210518 -0.000924586 0.00245 -0.00179458 -0.00164533 0.00147932 0.00297447 -0.0025738 2
-0.00207314 -0.000821509 0.000906537 -0.00139859 -0.00181228 0.000183074 -0.00113127 -0.000250103 2
-0.0016439 0.00154448 0.00102853 -0.000223273 -0.003437 -0.000424477 0.000726382 0.000381519 2
0.0359566 0.0018073 -0.00261606 0.00504013 -0.00564327 0.000629417 0.00214284 0.00324838 2
-0.00113801 0.000790051 -0.000561789 -0.00195545 -0.00076234 -0.000791744 -0.000794101 0.00169698 2
0.000853475 0.00107026 0.00544373 -0.0034443 -0.00123842 -0.000499484 0.000926446 0.00222246 2
0.000165165 0.000927762 -0.000701911 -0.00671584 0.000984653 -0.00652554 -0.00074981 0.0004119 2
0.0552985 0.00159488 0.000772548 0.000976645 -0.0030483 -2.06705e-05 0.00153231 -0.0023133 2
5.27616e-05 0.000378003 0.0030342 -0.00683206 -0.00109561 -0.00287493 -0.00085631 0.000905904 2
7.91665e-05 -0.00196181 -0.0080356 -0.00386937 0.00147416 -0.0077653 0.00146271 -0.0018981 2
0.00538286 0.00173303 -0.0123793 -0.0106273 0.003502 -0.0153172 -0.00475195 -0.00541878 2
-0.00214114 -0.0002363 0.00307751 0.000156656 -0.00265981 0.00351776 0.00130224 -0.000963232 2
0.00124874 0.00354106 -0.00655684 -0.00157809 0.00121387 -0.00105512 -0.00163663 0.00523077 2
-0.000316007 0.00100861 0.00417165 -0.00245226 -0.000623037 0.000327174 -0.00121261 0.000658497 2
-0.00226465 0.00152245 -0.00561004 0.000606924 0.000846559 -0.00391031 -0.00193288 -0.000675552 2
0.00625425 0.000383042 -0.00419215 -0.0180137 0.00761042 -0.0268018 -0.000490019 -0.0020844 2
-0.00139074 0.000780395 -0.007886 0.000249379 -0.000514651 0.00337074 3.97674e-05 -0.00136955 2
-0.00184955 -1.46968e-05 0.00246336 0.00193984 -0.00220068 -0.000855296 -0.000653692 -0.00100757 2
-0.000327292 0.00259735 -0.00444704 0.00320379 0.00113756 0.000455495 -0.000867279 0.00092101 2
0.000741837 0.00234117 -0.00271943 -0.0100901 0.00290401 -0.0135097 -0.00410273 0.00239536 2
0.000921968 0.00105571 -0.00977187 0.000514567 -0.000800366 -0.00281518 -0.0027566 0.00450515 2
-0.00315527 0.00295429 -0.00537986 0.00156532 0.00101075 0.000848962 -0.000782074 -0.00101521 2
-0.00054574 0.000752809 -0.0051784 -0.000738916 -0.001203 0.000342223 -0.000523605 -0.00269241 2
-6.05459e-05 0.00149232 -0.00122519 -0.0053385 0.00101334 -0.00673836 0.00172963 -0.000624395 2
0.0386327 0.00159631 0.00211065 0.00124935 -0.00611638 -0.00180139 0.00143767 -0.000453107 2
-0.00134173 0.00243933 0.0024695 -0.0045166 -0.00145795 5.63367e-05 -0.00353026 -0.00414776 2
0.000711424 -0.00069398 -0.00477269 -0.00197088 -3.57077e-05 -0.00155142 0.000121328 -0.00178735 2
0.00265615 0.000726933 0.0013434 -0.00415365 -0.001162 -0.000267648 -0.0050041 -0.00173556 2
-0.00106357 -0.00111725 -0.007788 0.000803536 -0.00260505 0.000789649 0.000965963 0.00101528 2
-0.00155236 -0.000202363 0.00342128 0.000244077 -9.11455e-05 0.00275708 -0.00383838 -0.00281652 2
-0.000891519 0.000811981 0.0038084 -0.001803 -0.00226242 0.000894916 -0.00358456 0.0015858 2
0.0378376 -0.00115302 0.00246158 0.00257648 -0.0058898 0.00290592 0.000607446 -0.00123411 2
-0.00197697 0.00101756 -0.00641826 0.00371349 -0.000164377 -8.53699e-05 -0.00260072 -0.000486959 2
0.00139154 0.00322951 -0.00214975 -0.0102452 0.00391855 -0.013888 -0.000608787 0.00109852 2
-0.00194292 0.001771 0.00337508 -0.00524459 0.00113052 -0.00182256 -0.000993645 0.000914395 2
-0.00175769 0.000707467 -0.00196489 0.00199299 -0.000395455 -0.00223347 0.00316474 0.00149909 2
-0.00173969 0.000285443 0.000811385 -0.00063905 -0.00032315 0.00137852 -0.000977117 0.00309818 2
0.000181897 0.000196015 -0.00622913 -0.000712752 0.00122647 -0.00441052 4.08612e-06 -0.000716252 2
-0.000843526 0.000706548 0.00198237 -0.00181514 -0.00387968 0.00326375 -3.54183e-05 0.001293 2
-0.00179274 0.000259839 0.00300087 0.00127124 -0.00246373 0.00280202 0.000676589 -0.0040252 2
0.000624862 -0.000251103 0.00133617 -0.00373433 0.00242637 -0.000539006 -0.00293909 -0.00224295 2
-0.00187597 -0.000473559 0.00198224 -0.00189818 -0.000603818 0.000643657 0.00150136 0.0015096 2
-0.00219188 0.0015904 0.00352094 -0.0045425 -0.0018937 0.0022509 0.000136835 0.00323866 2
-0.00159741 9.96243e-05 0.00192894 -0.00184036 -0.00170184 0.000319076 -0.00126641 -0.000747692 2
-0.00207644 0.00189059 -0.00485016 -0.00122643 0.00158192 -0.00298568 -0.00236594 -0.0035284 2
-0.00131243 0.00176203 0.00391455 -0.00325331 -0.00111807 0.00140924 -0.00141751 -0.00228204 2
-0.000534451 0.000223583 0.00107795 -0.00022873 0.000194552 5.76389e-05 -0.000682647 0.000990834 2
0.044389 0.00187714 0.00644967 -2.93126e-05 -0.00742153 0.00207447 -0.000967555 -0.00160045 2
0.000234365 0.000312906 6.70259e-05 -0.00209406 0.00101817 0.00114563 0.000892389 0.000917514 2
-0.00041499 0.000408591 -0.00353554 0.00300742 -0.00152948 0.000894107 -0.000502913 -0.00126765 2
0.000337267 0.00133666 0.00279889 -0.00289647 -0.000629574 0.00434498 0.000435663 0.000834252 2
0.000769903 -0.00095087 0.00440612 -0.0002067 0.00198926 0.00259175 -1.17946e-05 -0.00218735 2
-0.000745117 -0.000628311 0.00368427 -0.00362106 0.000913199 0.00191437 -0.00216303 0.00277585 2
-0.00182708 -0.00123159 -0.00847776 0.00186073 -0.000863078 2.23791e-05 -0.00166526 0.00118315 2
-0.00193067 0.000201316 -0.00390745 0.00140655 -0.000367797 0.000949014 -0.00094395 0.0033288 2
-0.00204218 0.000434361 -0.00366916 0.00447702 -0.00344068 -0.000128377 -0.0035977 -0.000757997 2
-0.00271924 0.00154899 0.00511578 -0.00475046 0.00129422 0.00321594 0.00485003 0.00301576 2
-0.00200756 -0.000571105 -0.00163817 0.00141877 -0.00415563 0.00343912 -0.00161491 0.000466837 2
-0.00235805 0.000100783 0.000553608 0.00118463 -0.00290756 0.000458046 -0.00191567 -0.00299256 2
-0.00129433 0.00153338 -0.00321434 0.000743218 -0.000326018 0.0016469 -0.000685697 -0.000598088 2
-0.00106817 0.0027591 0.000627916 -0.00147276 -0.000771947 0.000579674 -0.00201897 0.00205928 2
-0.00138807 0.00367132 0.000573347 0.00145633 -0.00107916 0.000405769 -0.00293365 -0.000682176 2
-0.0015084 0.00184135 0.000773404 -0.00114805 -0.000574867 0.00112916 -0.000670078 -0.00365768 2
-0.00214401 0.00166543 -0.000342542 0.000198181 -0.00214355 -0.000791686 -0.00176242 -0.00213472 2
-0.00142032 -0.000401721 0.000856314 -0.000796396 -0.00215608 2.8503e-05 -0.00282957 -0.00174432 2
-0.0017834 -8.22215e-05 -0.00585514 0.00141393 -0.000692314 0.00189442 -0.00213753 -0.00241685 2
0.000741408 0.00111949 -0.003843 -0.000682155 0.00120394 -0.000883432 0.00205233 -0.00374832 2
-0.00104884 0.00140986 0.00286008 -0.00195187 -0.00491101 0.00301998 -0.00393408 -0.0001388 2
-0.000979639 0.00171916 -0.00355464 0.0031059 -0.00102506 0.000571437 -0.00129547 -0.000415928 2
-0.000857824 0.00307475 0.00772161 -0.0070051 -0.00499405 0.00555392 -0.0216332 -0.0115983 2
-0.00158688 0.00285878 0.0034582 -0.000653933 -0.000474839 0.00182154 -0.00031098 -0.00198677 2
-6.22707e-05 -0.000226239 0.00252709 -0.00193727 -0.000581545 0.00114776 0.000327601 -0.00276518 2
-0.000889703 0.000140915 -0.00509218 0.000300837 0.00170086 0.0016058 -0.00204542 -0.000318108 2
-0.000907309 0.00147036 -0.00709104 0.00537965 -0.00237717 0.00253064 -0.00214558 -0.00117807 2
-0.00181386 0.00090449 0.00326551 -0.00542383 -5.94953e-05 0.003142 0.00137052 0.000782686 2
-0.00299372 -0.000183521 0.00380261 -0.0032306 -0.000746709 0.00164994 -0.000584895 -6.19852e-05 2
-0.0012955 0.00133934 0.00343171 -0.00116738 -0.00367131 0.00270446 0.00253972 -0.00490655 2
-0.000185349 0.000962619 0.000669826 0.00134927 -0.00180481 0.00190212 -0.0018407 0.00174233 2
8.56318e-05 0.00217767 -0.000387419 -0.00244448 -0.000526514 5.24482e-05 -0.00087949 -0.0010667 2
-0.00215283 0.00288647 0.00494003 -0.00258776 -0.00346619 0.00158133 -0.00418015 -0.00258696 2
-0.000767351 -1.09477e-05 -0.0015704 0.00248257 -0.00241784 0.00508622 -0.000167344 -0.00562133 2
-0.000225247 0.000523587 0.00435399 -0.00368494 -0.00184609 0.00427232 -0.00384511 -0.00424669 2
0.000127024 0.000948811 -0.00702176 0.00250732 0.0018578 -0.00227152 0.00166602 0.00146135 2
-0.000272601 0.00183914 -0.00289572 -3.18976e-05 -0.000256659 0.00258377 0.000568509 -0.00133923 2
-0.00238751 0.00141196 -0.0134007 0.00579504 0.00012068 0.00202581 0.000467941 -0.00140723 2
-0.000690938 -0.00117518 0.000804769 -0.00117276 -0.00364431 0.000652724 -0.00209943 -0.000223101 2
-0.00138561 0.00202563 0.00403571 -0.00243581 -0.00191585 0.00392245 -0.000675361 -0.00144488 2
-0.000633725 0.00129465 0.00245238 -0.00110874 -0.00237444 0.00236144 -0.00463427 -0.000544097 2
-0.00104932 0.00214675 -0.0128256 0.00663807 0.00146152 -0.000395765 -0.00146086 -0.000803986 2
-0.000600542 -0.000747901 -0.00316042 0.000423373 -0.000478903 0.0018712 0.000944932 0.00144436 2
0.000432443 0.0014209 -0.00382363 0.00122376 0.00572187 0.00398452 0.00144217 0.00145672 2
-0.000448273 -0.000111093 -0.0071283 0.00265334 -0.000433035 -0.000255991 -0.00102769 0.000961687 2
-0.00121921 0.00127685 -0.00107119 -0.000671822 -0.00146998 0.000192223 -0.00138117 -0.000341426 2
0.0099356 -0.000247799 -0.00793021 0.00390813 0.00321341 -0.00552876 0.00113437 -0.000111517 2
-0.00336691 0.00135958 0.00290254 -0.00078816 -0.00129132 0.00206613 -0.000890019 -0.00306255 2
0.000155032 7.9253e-06 0.00450317 -0.00319577 0.000113051 0.00172995 -0.000521625 0.00066247 2
-0.00209222 0.00151696 0.00247469 -0.00123586 -0.00224517 0.00211338 -0.00175058 -0.000383513 2
0.000402788 0.00297386 -0.00468426 0.00331854 0.00021022 0.00167005 0.00102368 -0.000255945 2
-0.000210696 0.00113672 -0.0135705 0.00469144 -0.0012062 0.00110753 9.38296e-05 0.00461219 2
-0.000898835 0.00230723 -0.00729551 0.00145261 0.000103322 0.000783915 0.00107125 -0.00217509 2
-0.00159444 0.00110916 0.00127121 -0.000922754 -0.000724253 0.00208834 0.00181227 -0.00015835 2
-0.00103565 0.000194622 0.00332081 -0.00311043 -0.00220515 3.36784e-05 -0.00223259 -0.00172504 2
-0.00131225 6.80628e-05 0.000307041 -0.000510742 -0.00306866 0.0019428 0.00346231 0.00184383 2
-8.02813e-05 -0.000406166 0.00488972 -0.000934107 -0.00243589 0.00153632 -0.00233649 -0.00082729 2
-0.00363648 2.7481e-05 0.00141538 -0.000187317 -0.00308068 0.00199032 -0.00128364 -0.000784877 2
-0.0028706 0.00256371 0.00290482 -0.00342207 -0.00350323 0.00172958 -0.00101651 0.00139814 2
-0.00134791 0.000316453 0.00404954 -0.00193023 -0.00363347 0.00148075 -0.00259532 -0.00171322 2
-0.00206988 -0.000846972 0.00253269 -0.00169087 -0.00258299 0.00269588 0.000524651 0.000439695 2
-0.00172597 0.00202525 -0.000328976 0.00085914 0.000602133 0.00138034 0.00131123 0.00331061 2
-0.000561468 0.00392395 0.00168834 -0.00380611 -0.00211976 -7.11838e-05 0.00126024 0.000903968 2
-0.00145801 -0.00171565 0.00176464 0.000136404 -0.000757623 0.00332451 -0.00289953 -0.00118914 2
-0.00138097 0.000568447 -0.00105098 0.000475585 0.0013571 0.000803998 0.00180848 -0.000174373 2
-0.0018335 0.00290885 7.89805e-05 -0.001938 0.000770838 0.000611788 0.00170651 0.000868694 2
-0.00147849 0.00152249 -0.00125345 -0.000601281 -8.28587e-05 0.0010777 -0.00213118 -0.00128392 2
-0.000680569 -0.00017401 0.00119675 -0.000338021 -0.0015783 8.21501e-05 0.00261523 -0.00160598 2
0.000191958 -0.000793543 -0.00473046 0.0018789 -0.00122661 0.00213583 -0.0011164 -0.000437296 2
-0.00116866 0.000862656 0.00298963 -0.000843866 -0.00155823 0.00267957 -0.000418929 -0.0038275 2
-0.000343948 0.00156151 5.21994e-05 -0.00171603 -0.00315766 0.000459874 0.00223648 0.000155293 2
-0.00151301 0.00374173 0.00353271 -0.00159022 -0.00100001 0.00298447 0.000353715 0.00281376 2
-0.000282247 0.000565624 -0.0103111 0.00436318 0.00200966 0.00121594 -0.00494748 0.00199726 2
0.00655593 -0.000439077 -7.34182e-05 -0.00236051 0.0202877 0.00338958 0.00700738 0.00781015 2
-0.00060062 0.00131646 -0.0056927 0.00143694 -0.00101366 0.00262818 -0.00104516 0.00117216 2
-0.00053547 0.00045216 0.00198765 -0.00195543 -0.0020812 0.000436732 -0.00448253 -0.00200022 2
-0.00147423 0.00410371 0.00616306 -0.0027268 -0.00110838 0.000964751 -3.51443e-06 0.00251981 2
-0.000959427 0.000255291 0.00265786 -0.000630945 -0.00140674 0.0027761 0.00121644 -0.000667204 2
-0.00270413 0.00228717 0.0034647 -0.0019481 -0.00315363 0.00100601 0.002466 -0.0038909 2
-0.00175685 0.000915021 -0.000140117 -0.00108946 -0.00320913 0.00256517 0.00119528 0.000240355 2
-0.00222869 0.00148671 -0.00972394 0.00168554 -0.000636444 0.000493514 0.00106227 -0.00145239 2
-0.00107878 0.00209371 -0.00354497 0.00162495 -0.00170501 -0.000217646 -0.000810347 0.00219886 2
0.00202427 0.00012959 -0.00780146 -0.000134588 -0.00126929 5.94559e-05 -0.00431988 0.000484579 2
-0.00178325 0.00165888 0.00576551 -0.00307315 -0.00434488 0.0038057 -0.00276848 -0.00490605 2
-0.00165227 0.00297372 0.00435071 -0.00239976 -0.00129995 0.000270534 -0.00106699 -0.00299793 2
-0.000842911 0.00298964 0.00307604 -0.00151897 6.08435e-06 -0.0023491 -0.00247125 -0.00157028 2
-0.00127258 -0.000749818 0.00243207 -0.00215724 0.000249443 0.00196265 -0.00177324 -0.000378091 2
-0.00046892 0.000123265 -0.00150689 4.5735e-06 -0.00428846 -0.000468315 -0.000801778 0.00114403 2
0.00078981 0.00431975 -0.00325802 -0.00254217 0.00316162 -0.00553299 0.0123837 0.00506274 2
-0.000741897 0.000387644 -0.00647366 0.00315058 -0.001534 -0.00079638 0.00172842 -0.00170005 2
-0.000990706 -0.000332712 -0.00824652 0.00187732 0.00150114 0.00294829 -0.00134126 -0.00100136 2
-0.000918826 0.000704402 4.60283e-05 -0.00105489 -0.00128209 -0.00372121 0.000550926 0.000611594 2
0.00243345 0.0005727 0.00467479 -0.00248195 -0.00181268 0.00175238 -0.00376565 0.00112572 2
-0.0017697 0.00222008 0.00449547 -0.00181246 -0.0029431 0.00150636 -0.00131666 -0.00119755 2
-0.00126598 0.00132465 -0.0024401 0.00269701 0.00155262 -0.00170603 -0.00202564 0.00126655 2
-0.00101423 0.00260209 0.000249132 -0.00263226 -0.00289908 -0.00032447 -0.0021767 0.000342927 2
-0.00135652 0.0013288 -0.00105605 -0.00121916 -0.00030728 0.000338459 -0.00174723 0.00224177 2
-0.00149245 0.00195835 0.00324837 -0.00133597 -0.00125731 0.0028396 6.71157e-05 -0.00197663 2
-0.00293352 0.000227605 -0.00344652 0.000246876 -0.0021856 0.00230764 0.00238467 0.000211723 2
-8.57994e-05 0.00146137 0.00302277 -0.00251045 -0.00481504 0.00540851 0.00249173 -0.00214739 2
-0.00193558 0.00398791 0.00210279 -0.00269314 0.000970678 0.00291645 -0.000277381 -0.000904314 2
0.00107082 0.000542849 -0.00140067 -0.000292282 0.000216544 0.00252227 0.00272524 0.000328054 2
-0.00200372 -0.000620445 -0.0132101 0.00814817 -0.000372538 0.000868467 -0.00159953 0.00101543 2
-0.00111462 -0.000804584 -0.00799023 0.00414678 -0.000187215 -0.000154819 0.00335023 -0.00194131 2
-4.69628e-05 0.00150609 -0.00642871 0.00140455 -0.0018415 0.000884868 -0.00205872 0.000225362 2
-0.00126668 0.00152115 5.67188e-05 -0.00240195 -0.00265907 1.56827e-06 -0.00258515 -0.000494534 2
-0.00028955 8.15992e-05 -0.00361351 9.38671e-05 -0.00234036 0.000913734 0.00113933 -0.00020445 2
-0.00334744 -0.00061241 -0.0133218 0.00634793 0.00225562 -0.000362515 0.000195457 -0.00265606 2
-0.00159736 0.00252958 0.00354902 -0.00189084 -0.000614965 0.000652996 -0.000722653 0.00192804 2
-0.00177093 0.00110421 0.00286409 -0.00207212 -0.00183688 0.00286441 -0.00322635 -0.000299347 2
-0.000421969 0.00256558 -0.00167876 -0.00189328 -7.54821e-05 0.000198488 -0.00169913 -0.000604946 2
-0.00226612 0.00104806 0.00621988 0.000193102 -0.000112202 0.0010239 -0.0025257 -0.000787196 2
-0.000716832 -0.000650405 -0.00407102 0.00133663 0.000645492 0.00200979 -0.00253516 0.000638583 2
-0.00254365 -0.00116402 0.00247618 -0.00198962 -0.00102799 6.28877e-06 -0.000638647 0.0020168 2
-0.00197971 -9.58528e-05 0.00436132 -0.00220133 -0.000949333 0.00224609 -0.00178918 -0.00144708 2
-0.000842458 0.00127802 0.00530644 -0.00110651 -0.00207077 0.00334367 -0.00016171 -0.00116215 2
-0.000448153 0.00174822 -0.00416547 0.00110134 -0.00146883 0.00201824 -0.000730071 -0.00210546 2
-0.000824862 0.00145394 0.00429861 -5.84086e-05 -0.0023296 0.00151556 -0.00193482 -0.00216466 2
-0.00136763 0.000942817 0.00245798 5.84615e-05 -0.00316066 0.00136703 -0.00121261 -0.00333401 2
-0.000458867 0.00027882 -0.00941465 0.00682432 -0.00105274 -0.000576729 -0.00177677 -0.0025169 2
-0.00138603 0.000271832 -0.000241763 -0.00053061 -0.00216539 0.00252469 -0.00294058 0.00122128 2
-0.000438095 -0.000277175 -0.00217242 0.00141731 -0.00304657 0.00333231 -0.00170527 -0.00243379 2
-0.00195311 -0.00314179 -0.00640829 0.00175434 -0.00256186 0.00307912 -0.000536379 -0.00197971 2
-0.00192806 0.000959159 -0.00455343 0.00310652 0.00126934 0.00199386 -0.00225141 -0.00132351 2
-0.00168331 0.00166713 -0.00603678 0.00397678 -0.00199542 0.00210607 -0.00224472 -0.00106036 2
-0.000133653 -0.00124912 -0.00307173 0.000534002 0.000868222 0.0010463 -0.000153003 -8.47004e-05 2
3.73087e-05 0.00190881 0.001808 -0.00220616 -0.000962917 0.00106659 -0.0025541 0.00293879 2
-0.00231368 0.000347601 -0.00675623 0.000813703 0.00026068 0.00152811 -0.00261839 0.00141656 2
0.000491522 -0.0248526 0.00555266 -0.00816589 -0.00301637 0.00424228 0.00134981 0.00417613 2
-0.00111208 -0.001957 0.00368876 -0.00284714 -0.00150853 0.00273277 -0.00062895 0.00207577 2
-0.00131104 0.000465778 0.000337738 -0.00146052 -0.000149868 0.0045888 -0.000260392 -0.00330208 2
-0.00214139 0.00115863 -0.00386182 -0.000592592 0.000348528 0.001913 -0.0015925 -0.00204246 2
-0.00160223 -0.00977441 0.0207374 0.00265216 -0.000992002 -0.00425535 -0.00139792 -0.00123165 2
-0.00168231 -0.00536509 0.00024227 0.0152285 0.00331378 -0.00671042 0.00667119 0.00241283 2
-0.00338242 -0.00455873 -0.00252123 0.0130247 0.000609186 -0.00532027 -0.00226469 -0.00173702 2
-0.0012898 0.000283968 0.00687958 -0.00347068 0.000371491 0.00109089 6.6336e-05 -0.00364699 2
-0.0039151 -0.00318943 0.00238324 0.0101915 0.00107325 -0.00380928 0.000133993 -0.00149578 2
-0.00188839 0.000568748 -0.0040893 -0.000365751 0.00046518 0.000100776 0.0189805 0.00522121 2
0.00165109 -0.00356349 0.00635602 0.0109778 0.00158748 -0.00646594 0.00201504 0.00169966 2
-0.00191209 0.00200651 -0.00206096 -0.00134382 -0.000467417 -0.00125114 0.00131951 -0.000472555 2
-0.000738419 -0.00228317 0.00522397 0.0112539 -0.000232033 -0.0105045 -0.00137719 -0.000156998 2
0.00115835 -0.00434387 0.0138037 0.0110877 0.00366207 -0.00847457 -0.00210399 0.000840361 2
-0.00222286 -0.00382867 0.00836487 0.0121811 0.00169561 -0.00759566 0.000624065 -0.000450555 2
-0.0029547 -0.00595746 0.00539742 0.0128605 0.00263911 -0.00869882 0.0205036 -0.00606771 2
0.000667441 -0.00435432 0.00821899 0.0138423 0.002017 -0.00845235 0.000112289 0.00188052 2
-0.00249062 -0.00352537 0.00545804 0.0125001 0.00234518 -0.00495141 -0.00255786 -0.000125378 2
-0.00179262 0.0018123 0.00538791 -0.00263065 -0.00161133 0.00142813 0.00339373 -0.00255355 2
-0.00207154 0.00131302 -0.00203733 -0.00136107 -0.00069978 0.00311266 0.00486591 0.000825256 2
-0.000626954 -0.00406367 0.00629966 0.0124235 0.00198588 -0.0106236 0.00465406 0.00140615 2
-0.000662675 0.000147436 0.00372651 -0.000138447 -0.00203223 0.000757904 -0.00194901 3.09172e-05 2
-0.00338972 -0.00326864 0.000526423 0.0143783 0.00107847 -0.00469688 0.00122078 0.00136614 2
-0.00103646 -0.0116463 0.0172497 0.000534614 0.000334833 -0.0040839 0.00320887 0.00143349 2
-0.00256434 -0.00293326 0.00799745 0.0091164 0.00060453 -0.00436504 -0.00340836 0.00263447 2
-0.00224492 -0.00901553 0.00316301 0.0152791 0.00436314 -0.00456901 -0.000438219 -0.00117738 2
-0.000423339 0.00145048 0.00509392 -0.00149223 -0.00138941 0.00290002 -0.00508285 -0.00132245 2
-0.00271312 -0.00584568 0.00650007 0.012235 0.000788471 -0.00759271 0.00033309 0.0037241 2
-0.00321403 -0.00397156 -0.00100819 0.0166471 0.00171391 -0.00859427 0.00228534 -0.000599622 2
-0.00106821 0.00210125 -0.0049238 0.00078522 0.000585543 -0.0015433 0.000194277 -0.00148033 2
-0.00190347 -0.00434061 0.00473265 0.00832855 0.00379403 -0.00902766 -0.00354588 0.00125492 2
-0.00118795 0.000876522 0.00280841 -0.00179871 -0.00116583 -0.000140903 -0.000306905 0.00136333 2
0.00814827 0.000217805 0.00253628 -0.00246379 -0.00654967 0.00637586 -0.00506239 0.0127342 2
-0.000832542 -0.00452362 0.00995245 0.00961992 0.00144016 -0.00844216 0.00625502 0.00117055 2
-0.00201981 -0.00689487 1.20503e-05 0.0147248 0.00217901 -0.00880557 0.00220933 0.00649984 2
-0.00127615 -0.0042064 0.00697403 0.013065 0.00166131 -0.00877827 0.000884005 -9.54418e-05 2
-0.00316584 -0.00388866 0.00480516 0.0126874 0.00205803 -0.00435616 -0.000904053 -0.000733278 2
-0.00158436 -0.0015481 -0.00348308 0.000549223 -3.07393e-05 0.000140505 -2.2397e-05 0.00058838 2
-0.00198214 -0.00572094 0.00766192 0.0111334 0.00167382 -0.0050088 -0.000991432 -0.00370009 2
-0.000917584 0.000527388 0.00456045 -0.00301632 -3.80524e-05 0.00328997 0.00734137 0.00119374 2
-0.00257652 0.00137126 0.00575785 -0.000293971 -0.000883864 0.000919983 0.00490463 0.000686672 2
-0.0023858 -0.0127202 0.0206841 0.000787042 -0.000546848 -0.00314881 0.00188071 -0.000662757 2
-0.000890326 9.4868e-05 0.00277013 -0.00128412 0.00102579 0.00320279 -0.00263797 0.00062628 2
-0.00231846 -0.00501626 0.00676893 0.0107685 0.00185363 -0.0120603 0.00157054 0.00344624 2
-0.00127473 -0.00353445 0.012251 0.00912623 0.000431254 -0.00287563 0.00135139 -1.25453e-05 2
0.00191009 0.00167712 0.00189163 0.000353135 -0.000773573 0.00160468 -0.000402169 0.000685524 2
-0.00167529 -0.0042506 0.00741289 0.00947434 0.00115874 -0.0061536 -0.00250692 0.00369847 2
-0.00200673 -0.00444402 0.0101117 0.0116217 0.00163689 -0.00538722 0.00309318 0.0028792 2
-0.0026914 -0.00380199 0.000213963 0.0151604 0.00330739 -0.00679971 0.00662293 0.000225222 2
-0.00189307 -0.0051078 0.00863094 0.0102031 0.00285077 -0.00650106 0.00106582 -0.00075151 2
-0.00275918 -0.000447882 -0.00458876 -0.000641514 -0.00218111 0.00240122 0.00866075 0.0005631 2
-0.00285454 0.00432313 -0.00815121 3.42016e-06 -0.00472221 0.00437374 -0.00858062 -0.00598256 2
-0.00272065 0.00145218 0.00441481 -0.00316002 -0.000805405 0.0032312 0.00816302 -0.000535258 2
-0.00189785 -0.00347686 0.0104878 0.00924501 -0.000133026 -0.00886478 -0.00164289 0.000656444 2
-0.00141187 0.00133294 -0.0120802 0.00466068 8.07076e-05 -0.000182652 0.000631957 -0.00202103 2
-0.000985953 -0.00342795 0.00181675 0.0111058 0.00252925 -0.00560266 0.00125785 -0.000953441 2
-0.00240304 -0.00468334 0.00798086 0.0110051 0.0024602 -0.0087697 -0.00108546 -0.00201282 2
-0.00164495 -0.00138378 0.00579 0.00989669 0.00226147 -0.00572673 -0.000708634 -0.00126803 2
-0.00243229 0.00229502 -0.00213561 2.35848e-05 -0.0027391 0.0054 0.00930831 -0.000895453 2
-0.00288737 -0.00203869 0.00659703 0.0106915 0.00111612 -0.00497163 -0.00244676 -0.00224754 2
-0.000793815 -0.00049069 9.68474e-05 -0.00118547 -0.00172983 0.00154556 -0.000817783 0.00187501 2
-0.00191646 -0.00600202 0.00667819 0.0114073 0.00307143 -0.007806 0.000307813 -0.000881107 2
-7.2362e-05 -0.000183358 0.00360175 -0.00416106 -0.0011635 0.00241091 0.00501695 -0.000234288 2
-0.00164443 0.00243034 0.00283222 -1.20095e-05 0.000305024 0.000559176 -0.00194817 0.000465418 2
-0.00110161 -0.00162955 0.00563909 0.00622723 0.000136098 -0.00431342 -0.00259869 -0.0010279 2
-0.00116555 -0.00162212 0.00980746 0.0125394 0.00280494 -0.006705 -0.00358624 -0.000642975 2
-0.00166666 -0.000868432 -0.0102805 0.00546776 -0.003065 0.00411407 0.0323549 0.00760575 2
-0.0027911 -0.00123503 0.00826544 0.0102289 0.00110847 -0.00668035 -0.00120049 -0.000974094 2
-0.00118244 0.000280266 0.00562716 0.00204308 -0.000865968 -0.0025195 -0.00112778 -0.00220124 2
-0.00251751 -0.00437617 0.00266614 0.0138567 0.00242011 -0.00607986 0.00464966 0.000158211 2
-0.00130277 1.14223e-05 -0.00479332 0.00246612 0.000234663 0.0023569 0.000813521 -0.000914209 2
-0.0025124 0.00117669 0.00395624 -0.00443736 0.000579681 0.00314958 0.0146666 0.00107193 2
-0.00053942 -0.00532338 0.00822027 0.0114181 0.00148917 -0.0104765 -8.13403e-06 -4.5736e-05 2
-0.00165364 -0.00270944 0.0114256 0.00836732 -0.00144724 -0.00410738 -0.00260585 -0.00231858 2
-0.00132471 -0.00550746 0.00681389 0.0142179 0.00143175 -0.00631473 6.66027e-05 -0.00191733 2
-0.00250032 -0.00451757 0.00823659 0.0120984 0.00215561 -0.00924296 -0.00109518 -0.000122235 2
-0.00251412 0.000124465 0.00200174 -0.00235287 -0.00184491 0.00248231 -0.00111858 -0.000721872 2
-0.00116892 0.000960508 -0.00137627 -0.00124999 -0.00262627 0.00266637 0.00120046 -0.00124382 2
-0.00202334 -0.00130774 0.00637224 0.0078804 -0.000600076 -0.0040923 0.000315327 -0.00100942 2
0.000412903 0.00100649 0.00204883 -0.00257589 0.00185719 0.00264073 -0.000707993 -0.00389651 2
1.48614e-05 -0.00452138 0.00650356 0.012871 0.00585094 -0.00820573 0.00406032 -0.000995266 2
-0.00243815 -0.00462218 0.00577035 0.0128372 0.00295949 -0.00863252 -0.000986566 -0.000960397 2
-0.00203268 -0.00375488 0.00722646 0.0145538 0.000364224 -0.00574837 0.00159299 0.00159775 2
0.000195354 -0.00313651 0.00435042 0.0130763 0.00220172 -0.00733816 0.00129432 -0.00181911 2
9.57512e-05 -4.00359e-06 0.00555846 -0.00226163 -0.00149659 0.00272882 0.000149371 0.00258163 2
-0.00255697 -0.00508338 0.00425391 0.010922 0.00225724 -0.00771555 -0.00215467 -0.00102951 2
-0.00150579 -0.0031387 0.0110975 0.0118167 0.00310999 -0.00476486 -0.00151402 -0.000373346 2
-0.000243519 -0.00146332 -0.00542338 0.00306785 -0.00231119 0.000191583 0.0021777 0.00381003 2
-0.0034571 -0.00132915 0.00530651 0.00873584 -8.99521e-05 -0.00691738 0.000111847 0.000125711 2
-0.000826583 0.0012215 0.00250725 -0.00231896 0.00015917 -0.00184138 -0.00369752 -0.00320502 2
-0.0021954 0.00218247 0.00362083 -0.00400741 0.00497381 0.00611318 -0.0243548 0.00371171 2
-0.00301132 -0.00256931 0.006898 0.00824645 -0.0001682 -0.00820609 -0.00126082 -0.00194105 2
-0.000240086 0.000231924 0.00250616 -0.00185527 -0.000489261 -0.000551176 -0.0017428 -0.000536852 2
-0.00287398 -0.00412463 0.00436422 0.0121069 -0.000717435 -0.00675704 -0.00464261 8.53293e-05 2
-0.00165176 -0.000112687 0.00119955 -0.00127987 -0.000480188 0.00108116 -0.00196026 -0.00141754 2
-0.00189642 -0.0054318 0.00740282 0.0124044 0.00163686 -0.00901749 0.00242588 -0.00127781 2
-0.000327211 0.00031533 -0.00642653 0.0043413 0.000446636 0.000461768 -0.000711817 -0.00251296 2
-0.00206411 -0.00543319 0.00290514 0.0130767 0.00418938 -0.00769419 0.0215605 -0.00483488 2
-0.00190835 0.0023641 -0.00544864 0.00337143 -0.00235684 -0.00024403 -0.00286704 -0.0022209 2
-0.00205021 -1.51765e-05 -0.0205565 0.00747384 -0.000212491 0.00324243 0.00114243 -0.00318125 2
-0.0018793 -0.00289534 0.00896876 0.00652742 0.00209105 -0.00607878 -0.00113172 -0.00144363 2
-0.00304387 -0.00448641 0.00965945 0.00923114 0.00103169 -0.00461926 -0.00151712 -0.0017907 2
0.00078371 0.00123213 -0.00235651 0.000465941 0.00138524 0.00384628 -0.00265023 -0.000342397 2
-0.00106537 -0.00355627 0.00984334 0.00711979 0.00170475 -0.0031279 -0.00203998 -0.000270938 2
-0.00272153 -0.0038537 0.00837999 0.0126721 0.000612877 -0.0082799 0.000335244 -0.000934454 2
-0.0046432 -0.00386041 -0.0036996 0.0190525 0.00214006 -0.00776498 0.00083571 -0.00247806 2
-0.00148833 -0.00344516 0.00116712 0.0147081 0.000832215 -0.00844235 0.000802947 0.00148684 2
-0.000304329 0.000216041 -0.00879562 0.00209751 -7.71705e-05 0.000628135 0.00604166 0.00165453 2
-0.000301553 -0.00280493 0.0089203 0.00776412 0.000711751 -0.00463859 -0.0006647 -0.00135128 2
-0.00283997 0.000477628 0.00544229 -0.00208439 -0.00376405 0.00211019 0.00278548 0.00138707 2
-0.00416858 -0.00249392 0.0083884 0.0109014 0.00109671 -0.00505814 0.00372357 -0.00108455 2
-0.00115804 -0.000906422 0.00734909 -0.00488533 -0.00195806 0.00238496 0.000607917 -0.0132114 2
-0.00250551 -0.00520295 0.00197975 0.0127406 0.00115618 -0.00879076 -0.00184154 -0.00137145 2
-0.00238167 0.00231625 -0.00334239 -0.000652936 0.000731934 0.00179513 0.00573423 0.000608623 2
-0.00079346 0.000131783 0.00370122 -0.00306061 0.000590147 -0.00095057 -0.000625795 -0.000931597 2
-0.00285354 -0.00256799 0.00413781 0.00966806 0.000872346 -0.00445681 -0.00279627 -0.00117456 2
-0.00198747 -0.00623875 0.00693918 0.0124898 0.000704176 -0.00436336 0.0032073 0.00318384 2
-0.00238768 -0.00143925 0.00931979 0.0126654 0.000676324 -0.00510712 -0.00228105 -0.00151012 2
-0.0023975 1.84889e-05 0.00158301 -0.00571958 -0.00117664 0.006622 0.0122596 0.00232343 2
-0.00201521 -7.07986e-05 0.00255568 -0.00430471 0.000741594 0.00232656 0.000999919 0.00314217 2
-0.00119998 0.00130123 -0.000722535 -0.000791761 -0.000472793 -0.000410513 0.000738135 0.00389261 2
