# .PCD v0.7 - Point Cloud Data file format
VERSION 0.7
FIELDS x y z C4 C5 C6 C7 C8 color
SIZE 4 4 4 4 4 4 4 4 4
TYPE F F F F F F F F F
COUNT 1 1 1 1 1 1 1 1 1
WIDTH 510
HEIGHT 1
VIEWPOINT 0 0 0 1 0 0 0
POINTS 510
DATA ascii
-0.000641483 -0.00121821 0.00817577 -0.000690998 0.00363285 0.00028978 -0.00100806 -0.010871 3
0.00438354 -0.00770951 0.00253915 -0.00313336 0.00505472 -0.0020928 0.00374499 -0.00167681 3
-0.00706205 0.00438932 -0.00596656 0.00244794 0.00363815 0.000368735 0.00108492 0.00733372 3
-0.0021829 0.00538231 0.00414194 0.00265312 0.00472968 -0.00244438 -0.000297122 -0.00418194 3
-4.07766e-05 -0.00325072 -0.00207598 0.00194765 0.00201435 0.00169595 -0.00815084 -0.0018951 3
0.00180342 3.26442e-05 0.00505687 -0.000411927 0.00328191 0.00250471 -0.00703198 -0.00373369 3
-0.00270122 0.00436505 0.00182931 -0.00116756 0.00307289 0.00294927 0.00422125 -0.00727525 3
0.00274898 0.000555806 0.00311469 0.000473283 -0.0016307 0.00199142 0.00200828 -0.00404692 3
-0.00301024 -0.00487849 -0.00362269 0.00130274 -0.00253786 -0.00734233 -0.00053775 0.00374512 3
-0.00170443 -0.00282593 -0.00583719 0.000326102 -0.00336648 -0.00441602 -0.00538961 0.00142359 3
0.00438328 -0.00589626 0.00490192 -0.00108386 0.0053246 -0.000521749 -0.00282753 0.00286161 3
-0.00547212 0.011602 0.00496063 0.00355741 0.00451342 -0.00146203 0.00363834 -0.00249441 3
0.00059565 0.00185275 0.00474573 0.00237342 -0.00238336 -0.00867795 0.00541063 -0.00240698 3
-0.00943292 -0.00220383 -0.0111697 0.00063996 0.000616653 0.00544206 -0.00371776 -0.00129942 3
-0.00526944 -0.000906016 -0.00780564 0.000673024 0.000253262 -0.000286035 -0.0048098 -0.00700067 3
-0.00858731 0.00313421 -0.00958996 0.00218624 0.000595941 -0.00290336 -0.00139575 -0.00310485 3
-0.000907662 0.00447679 0.00660535 0.0026912 -0.000724654 -0.000631682 -0.011169 0.00291653 3
-0.00525247 0.00260961 -0.00013916 0.00036811 0.00258379 0.00383735 -0.000474067 0.00325174 3
0.00043766 -0.000979202 0.0117336 0.000968773 0.00475129 -0.00118932 -0.00591277 -0.00554755 3
-0.00317775 -0.00423176 -0.00161452 -0.00230679 0.00354697 -0.00264249 0.00235663 0.00673043 3
0.000271392 -0.0113634 -0.0060322 -0.00440414 -0.000820738 0.0028251 -0.00222311 -0.00192574 3
-0.00157433 -0.00361179 -0.00374207 0.000778944 0.00369427 -0.00455335 0.00360373 0.000963608 3
-0.00760477 0.00941171 0.00551104 0.00278936 0.000614177 0.00145851 0.0036128 -0.0027741 3
0.0031346 -0.0102026 0.00265409 -0.00332353 0.00112444 0.00141402 -0.00810166 0.00169526 3
-0.00590273 0.0079765 0.00839936 -0.000514829 0.00229042 -0.0017622 -0.000394324 0.00129184 3
-0.00578989 0.00734517 -0.00098898 0.00236702 0.00272662 -0.00070948 0.00255693 -0.00567472 3
0.00380208 -0.000118833 0.00756175 0.00157458 0.00180244 -0.00453264 0.00167524 0.00135699 3
-0.00423876 0.00505934 -0.002146 0.00181258 -0.00164426 0.00478519 -0.0021517 -0.00289592 3
-0.0028512 0.0102151 0.00106011 -0.000530516 -4.52152e-07 -0.000938941 0.00452482 -0.00517095 3
0.00311031 -0.00444749 0.00218673 0.00293966 0.00686255 -0.000465892 -0.00931401 0.00179605 3
-0.00716515 -0.0115257 -0.0137822 -0.00299174 0.00702702 -0.00313874 0.00477543 0.0055864 3
-0.00121685 0.00234186 0.00549371 0.00713895 1.56324e-05 -0.0033211 0.00162175 0.00649318 3
-0.00715697 0.00280542 -0.00355253 0.000830695 -0.0016461 -0.00364202 -0.00251147 0.00487131 3
0.00367023 -0.0119167 -0.00148376 -0.00323883 0.0059522 -0.000591831 0.00018916 -0.0056557 3
-0.0035031 0.00237495 -0.00126062 0.00329818 0.00526012 -0.00063753 0.00261523 0.00466552 3
0.00266047 -0.00205198 -0.000462773 0.0029383 0.00254462 0.00298365 0.000988098 0.00257761 3
-0.00963222 0.00102847 -0.00945635 0.000181664 0.00772268 0.00681826 -0.000760318 -0.0064244 3
0.00102724 -0.00123726 0.000207959 -0.000668825 0.00630265 -0.000576511 0.00514249 -0.00245445 3
-0.00834222 0.00659383 0.00233001 0.00352701 -0.00100265 0.00510002 0.00315441 -0.00614311 3
0.000446765 0.00396897 0.00597098 0.00254873 0.00341041 -0.00054473 0.00165434 -0.0029284 3
-0.00453923 0.00875092 0.0103937 0.0017348 0.00447102 -0.00028006 0.00320087 -0.00263366 3
0.000368094 -0.00943942 0.00577056 0.00032898 0.00635508 0.00404157 -0.00625152 0.00231998 3
-0.00527147 0.00589512 -0.00503043 0.000117691 0.0052582 0.0028945 0.00493911 -0.00350758 3
-0.00926158 0.00485258 -0.00706661 0.00260462 3.74447e-05 0.0029376 -0.00215422 0.00180908 3
0.000895673 -0.0080292 -0.000658238 0.000136341 0.0043126 -0.00119118 0.000199396 0.00711242 3
-0.00361174 -0.00555243 -0.00342642 -0.0046476 0.00225577 -0.00060843 -0.00620588 -0.00388831 3
-0.00556437 0.00989254 -0.000821199 0.004222 0.0042795 -0.00323591 0.00685734 0.00241773 3
-0.00261886 0.00833725 0.00157828 0.00148168 0.00325562 -0.00190859 -0.00283802 -0.0100907 3
0.00338287 0.0033031 0.000226804 -0.00228565 0.000410886 -0.00405786 0.0044476 -0.00213635 3
-0.00418541 -0.00568479 -0.00561782 -0.00309334 -2.26287e-05 -0.00237229 0.00428741 -0.00563471 3
-0.007351 -0.00711248 -0.00711806 -0.00166581 0.0039287 0.000349544 0.00134953 0.00114697 3
-0.00379682 0.00515658 0.000703591 0.00273838 -0.00416349 -0.000501078 0.00805744 -0.00212682 3
-0.00181898 0.00158587 0.00226392 0.00340234 -0.000508819 0.00139646 -0.0024358 0.00187228 3
-0.000232481 -0.00640132 -0.0060024 0.00164666 0.00639775 0.00090875 0.00271421 -0.00201682 3
0.000300708 0.000688183 0.00317736 0.000959663 0.000909691 9.29744e-05 0.00362564 0.00254155 3
-0.00140567 -0.0034808 -0.00353766 0.000285188 0.00422161 -0.00523282 -0.00171397 0.000281627 3
-0.00760071 0.0102805 -0.00274419 0.000464351 0.0026682 0.000750094 0.00630277 -0.000321578 3
-0.00211991 -0.00785584 -0.00361137 0.00200496 -0.000725321 0.000462946 -0.00571166 -0.00321118 3
0.00462562 -0.00714799 0.00367889 -0.00351718 0.00499003 0.00247657 0.00179209 0.00383842 3
-0.00489882 -0.00627809 -0.00910216 0.000982784 0.00629159 0.00115278 0.00053164 0.00227192 3
0.00648311 -0.00262744 0.00447507 0.0021464 0.00220796 -0.00677871 0.00472431 0.00361777 3
-0.000548412 0.00104125 0.00600756 0.00535745 0.00375729 -0.00363847 0.00658171 0.00552248 3
-0.00884218 0.00137026 -0.00980578 0.00173832 0.000719723 -0.0062782 -0.000671991 0.00403443 3
-0.00665157 0.00846804 -0.00206361 0.00670333 0.00139456 -0.00569701 0.00188323 0.00297898 3
0.0011823 -0.013454 0.002401 -0.00139814 0.00233266 0.00242935 -0.000449081 -0.00268842 3
-0.0021629 0.00871143 -0.00195898 0.00492933 0.00260313 -0.000537514 0.00134217 0.00341274 3
-0.00698047 0.00945684 0.00509058 0.0012104 0.00437907 -0.000213602 -0.00801598 0.00094949 3
-0.00623509 0.00626888 -0.00930587 0.00252545 0.00244362 -0.000589164 0.00514956 -0.000324279 3
-0.0128598 0.00356783 -0.0141778 0.000390241 -0.000354489 -0.00113783 -0.00263289 -0.00593823 3
-0.00503097 0.0108925 -0.00159858 0.00105653 -0.00318617 -0.00775738 0.00424649 -0.011237 3
-0.0106758 0.00125251 -0.0115607 0.00278603 0.00257261 0.00112491 -0.00353058 0.000135824 3
-0.00213999 0.0108017 0.00172246 0.00576915 0.00252757 0.00177756 0.00356117 -0.00227723 3
0.00435629 0.000634872 0.00668918 -0.000756287 -0.00193341 0.00549918 -0.00156061 -0.00261068 3
-0.00362575 0.0085243 0.0056662 0.00038655 0.00151122 -0.00348273 -0.00110499 0.00142902 3
-0.00843995 0.00302551 -0.0107346 -0.000570777 0.00270123 0.00354918 -0.0016028 -0.00535739 3
-0.00346907 0.00356742 0.000248987 0.00145934 0.00414496 8.64393e-05 -0.00399084 -0.00129951 3
-0.00748548 0.00183679 -0.00206575 7.11609e-06 0.00545115 -0.00194404 0.00365387 -0.000691386 3
0.00139999 -0.00480402 -0.00176769 -0.000291575 0.00331028 0.00353949 -0.000871894 0.00264103 3
0.00182673 -0.0105008 0.000654994 -0.00067249 0.00118039 0.00459298 -0.000221258 0.00093572 3
0.000579647 0.00366513 0.00563457 -0.00225858 7.07877e-05 0.00260048 0.00373945 -0.00408464 3
0.00242785 -0.0033611 0.00348181 0.00194128 0.00201526 0.0017573 -0.00262849 -0.00103154 3
-0.0021334 0.00728289 0.00733024 0.00584932 0.00287184 -0.00742762 0.000320271 0.00210152 3
-0.00339573 -0.0147743 -0.00795582 -0.00229699 -0.000626538 -0.00193006 -0.00578068 0.00174631 3
-0.010446 0.00152635 -0.00210412 -0.00033119 0.00425405 -0.00240202 0.00284065 0.00267905 3
0.00256928 -0.0015618 0.00464744 -0.00176519 0.000645938 4.20021e-05 -0.00593874 -0.00428305 3
7.46551e-05 0.0044191 0.00626415 0.00285963 0.00444428 -0.00208354 -0.00146373 -0.00310133 3
-0.0130548 -3.81832e-05 -0.00486779 -0.00376852 -0.000270147 -0.00836282 -0.00238545 -0.00178578 3
0.00186486 0.00442933 0.00748055 0.00132932 -0.000550542 0.00136914 -0.00197983 -0.0138425 3
-0.00864438 0.00120509 -0.00898713 -0.0037172 0.00408236 0.000463589 0.00410406 0.00121577 3
-0.010251 0.00781922 -0.00252035 -0.000404513 0.00102411 -0.00141104 -0.00344006 -0.00291827 3
-0.00792277 0.00548736 -0.00133321 -0.00181802 0.00224668 -0.00103364 0.00559951 0.00756252 3
0.00382321 0.00169887 0.00658497 0.00109982 0.00321821 0.00149683 -0.00620655 -0.00379863 3
0.00606233 -0.0078764 0.00894224 -0.00294721 0.00264484 0.00262354 -0.00540954 -0.00470648 3
-0.00306523 -0.00202306 -0.00262475 0.00161828 0.00244999 0.00480151 -0.0120531 -0.00390281 3
0.00265377 0.00110418 0.00204063 0.00317229 0.00494045 -0.00218801 0.00525005 0.00238618 3
0.00342285 0.00407236 0.00650216 0.00497025 0.0038647 -0.00316113 -0.00112046 0.00482486 3
-0.00435846 0.0121928 0.00340297 0.00412207 0.00287514 0.00154056 0.00414401 -0.00136475 3
0.000567524 9.20452e-05 0.00492305 0.00236591 0.00133381 0.00575888 0.000702433 0.00044755 3
-0.00424302 -0.00745336 -0.000358087 0.000565674 0.000101665 -0.000268799 -0.0133731 -0.00103388 3
-0.0035335 0.000335931 0.00313709 0.00378498 0.00230198 0.00872755 -0.000197253 -0.0551818 3
-0.00480918 -0.0040819 -0.00722029 -0.00341794 0.000546498 -0.00573516 -0.00332271 -0.00458513 3
-0.00868202 0.00341138 -0.0083622 0.00129861 0.00539751 -0.00294304 0.00817353 -0.00731175 3
0.000798948 0.00383739 0.00845447 0.00339907 0.00596594 -0.00133662 0.00561225 0.000425805 3
0.00177296 0.00198857 0.00730567 -0.000922109 0.000449582 0.00349968 -0.00602754 -5.20193e-05 3
-0.00370284 -0.00466181 -9.9497e-06 -0.000477096 0.00640087 0.0120592 -0.00116762 -0.00602444 3
-0.00560503 0.00504258 -0.00246524 0.00682331 0.00502834 0.0053795 -0.00666871 -0.00554412 3
-0.0027231 0.00848424 0.00328592 0.004427 0.000741651 0.00302974 -0.00553997 -0.00488069 3
-0.0132281 0.00161824 -0.015405 -0.000837504 1.1382e-06 0.00120651 -0.000747709 0.00695758 3
0.000319942 0.0013188 0.0050144 0.00212481 0.00598308 -0.00341734 -0.00807877 0.00572508 3
0.00116407 -0.0148506 -0.0075429 -0.00390088 0.00577205 -7.86504e-05 -0.00215382 -0.00334538 3
-0.00524506 0.000410424 -0.0126014 0.00029417 0.00355529 -0.00191555 0.00208203 -9.47756e-05 3
-0.00778905 0.00120287 -0.0139739 -7.87833e-05 0.000319883 -0.00229686 0.00306992 0.00451812 3
-0.00194865 -0.00596988 -0.00585002 -0.00150855 -0.00390091 -0.00105115 0.0040597 -0.00145355 3
-0.00646372 0.00997073 0.00446262 0.00195748 0.00132843 -0.00031621 0.00364456 -0.00252743 3
-0.00774084 0.000806007 -0.0125921 0.00204166 -0.000408455 -0.00362335 0.00494248 0.00471519 3
-0.00651847 -0.00425242 -0.00466419 -0.00294939 -0.000241227 -0.00270038 -0.00332554 -0.00539315 3
-0.00122832 -0.00263517 -0.0022371 -0.000275692 0.00403516 -0.00104662 -0.0134828 -0.00383517 3
-0.00356407 -0.00282212 -0.00102126 0.000441576 0.00113469 -0.000775397 -0.00315151 0.00417174 3
-0.0118065 0.00116769 -0.0093685 0.000582015 0.00226101 0.00113654 0.00691952 -0.00176435 3
0.000444818 -0.0160592 -0.00805573 -0.00570103 0.00283856 0.000957363 -0.0028017 -0.00160919 3
-0.00135045 0.00358054 0.00750938 0.000493789 0.00101303 -0.00499584 0.00199559 0.00392236 3
-0.00858407 0.0018273 -0.00870993 0.00140866 0.00169055 0.00218825 -0.00384986 -0.00406722 3
-0.00356012 -0.0109298 -0.00333051 0.000860895 0.00454511 -0.00434433 -0.0129769 -0.0010032 3
-0.0082383 0.00614201 9.04349e-06 -0.0017984 0.00428983 -0.00180366 -0.00278559 0.000260955 3
-0.00595067 -0.00771932 -0.0105994 -0.00123956 0.00237861 0.00320002 -0.00736366 0.00243456 3
0.00412707 -0.0114555 -0.00280664 0.000788696 0.00105018 0.000317522 -0.000325312 0.00213064 3
0.00513032 -0.00685396 0.00882502 -0.00164229 0.00169697 0.00476351 0.000261268 -0.00130856 3
-0.000618624 0.000206781 0.00610936 0.00118347 0.00445787 -0.00381217 -0.0102062 0.0106603 3
-0.00843446 0.00999292 0.000859092 0.00339195 0.00611234 -0.00404887 0.00199571 0.00227305 3
0.00143971 -0.00188937 0.00147864 0.000339483 0.00450769 -0.00179705 0.000277033 -0.00449198 3
-0.0050383 0.000473093 0.0011193 0.000288459 0.00129276 -0.00520889 0.00333653 0.000329387 3
0.000520765 -0.0170405 -0.00862395 -0.00574521 0.00324132 -0.0252358 -0.0316854 0.0442547 3
0.000929061 -0.013896 -0.00200433 -0.00293464 0.00450271 -0.00473594 -0.00419314 -0.000411364 3
-0.000881923 0.00397091 0.00386214 0.00347606 0.00471537 -0.00119567 0.003604 0.0034747 3
-0.001384 -0.00326184 0.00121889 -0.00527019 0.000516427 0.00476263 0.00120019 -0.0112679 3
0.00589944 -0.00989652 0.00621375 -0.000334187 0.0044944 0.00024987 -0.000141537 0.00239903 3
-0.00438631 0.0061461 0.00430946 0.0046251 0.00523182 0.00105036 -0.000430496 -0.000520797 3
-0.0010768 0.000148734 0.0030128 0.000391421 0.0015079 0.00566522 -0.00199495 0.00383924 3
0.00266536 0.00678789 0.00686861 0.00232838 -0.00308724 -0.00417072 -0.00143972 -0.00995693 3
-0.00103637 0.00196501 0.00114605 -0.000309095 0.0014951 4.57574e-05 -0.000611863 -0.000422803 3
-0.000926035 -0.00299529 -0.00395075 0.00431701 -0.000371994 -0.00168754 -0.0068856 -0.00229345 3
0.000520681 -0.00486705 -0.000358685 0.00325129 0.000444047 -0.00333588 0.00134197 -0.00474101 3
0.00575906 -0.00475442 0.00824394 0.00359492 0.00109798 0.00116961 0.0010007 -0.00147889 3
-0.00236406 0.0111216 0.00236012 0.00204289 -0.000285901 -0.00127036 0.00373592 0.00311568 3
-0.000268568 0.00779642 0.00277635 0.00382396 5.19689e-05 -0.00494319 0.000449048 0.00201074 3
-0.00293794 0.0102302 0.00113417 0.00712529 0.000768379 0.00298693 0.00414309 -0.00273522 3
0.00900177 -0.00669904 -0.00585105 0.00422636 0.00602331 0.00766618 0.00368055 0.00494001 3
-0.00572924 -0.00560245 -0.00797659 -0.00549606 0.0025756 -0.00251442 0.00186878 0.00127709 3
-0.00358556 0.00869617 -0.00105166 0.00317374 -0.0103633 -0.00384786 0.00820803 -0.00487749 3
-0.00675375 0.00710037 -0.000387463 0.00114357 0.00124556 -0.00194187 0.00196724 -0.0047046 3
0.000185366 -0.016765 -0.0116063 -0.00243828 0.000485022 -0.0055766 -0.0131722 0.00275229 3
0.000303645 -0.00606021 0.00817762 0.0012449 0.0015648 0.00539728 -0.00263939 -0.00291191 3
-0.0155502 0.00265676 -0.00806258 0.00404808 -0.0067124 -0.000243291 0.0012971 0.00132499 3
0.00608607 0.000517835 0.00570901 0.00108386 0.000735782 -0.00209945 0.000770347 0.0124863 3
-0.00102304 -0.00114926 0.00266341 0.00285321 -0.00230193 0.00664499 0.00157355 -0.000334201 3
-0.00442684 0.00533741 0.00204322 0.00688377 -0.0170124 0.0129642 0.00543011 0.00735903 3
0.00377172 -0.00967179 0.00681201 0.00266846 -0.0130633 0.00987608 0.00661245 -0.00129532 3
0.00356383 -0.00357789 0.00838716 0.00241979 0.00167311 -0.00542545 -0.00534689 0.00587053 3
0.000551994 -0.000843677 0.00196727 0.00589119 -0.00277979 0.00380067 0.00323458 8.57152e-05 3
-0.0126629 0.000892781 -0.0140073 -0.000605967 0.00538136 -0.00200132 -0.00192969 -0.00253536 3
0.0030891 -0.00212569 0.00596402 0.00107551 0.0027204 0.00590929 -0.0051899 -0.00144721 3
0.00172862 0.00269509 0.00578703 0.000207769 0.00502271 -0.00534233 0.00905568 -0.00418682 3
-0.00110403 -0.0077537 -0.00106686 0.00299963 -0.0165398 0.0119984 0.00016856 0.00586123 3
-0.00180019 0.00231052 0.00308988 0.0017916 0.00576275 -0.00393657 0.00736499 0.00231909 3
-0.00444751 0.0049065 -0.00262717 0.000513991 0.00357375 -0.000106844 -0.00309361 -0.00349669 3
-0.000909706 0.0011084 0.0019235 0.00345167 -0.00892784 -0.00285779 0.00674836 -0.00901555 3
-0.00754708 0.00731993 -0.00345906 0.00128436 4.8782e-05 0.00111578 0.00729611 -0.00320947 3
-0.000605406 0.00338275 0.00594881 0.00197258 -0.000460371 -0.000632797 6.68845e-06 -0.00150631 3
-0.00728398 0.00173011 -0.0011825 0.00389428 0.000450072 -0.000494485 -0.00314777 -0.000789538 3
-0.000459969 0.000518161 0.00610021 0.00160516 0.00437286 0.00248108 -0.00432165 -0.00500357 3
-0.00697584 0.00859691 0.00219167 0.00701745 -0.0201868 0.0157456 -0.00219135 0.00802616 3
-0.00373563 0.000271658 0.00408985 -0.000818936 -0.000873692 0.00513298 0.00202452 0.000577342 3
-0.00796915 0.00865777 -0.00438575 0.00190093 -0.0093872 -0.00529684 0.00188993 0.00406161 3
-0.00421355 -0.00178643 -0.00745816 -0.000438826 0.00256263 0.00100714 -0.00114175 0.00205272 3
-0.00267061 0.00850005 0.00519653 0.00507543 0.00430925 -0.0118828 -0.00368429 0.00697657 3
-0.00592062 0.00290355 -0.00166693 0.00235266 -0.0100315 0.010125 0.0117055 -0.00164136 3
0.00102682 -0.000287726 0.00463803 0.00373573 0.00478169 -0.00639647 0.00107168 0.00167236 3
0.00571551 -0.00963228 -0.00043464 0.000563776 0.00102534 -0.00330649 0.00461673 0.00717155 3
-0.000527302 0.00277814 0.00356702 -0.000188885 -0.000715388 -0.000581165 0.000396846 0.000218875 3
0.00551965 -0.00569892 0.0104248 -0.00396339 0.00354073 -0.00302899 -2.97476e-05 -0.000482978 3
-0.000774122 0.00331979 0.00985031 -4.05464e-05 -0.00118096 -0.00111399 0.002261 0.00621851 3
-0.00261791 -0.000177653 -0.000806941 0.00436569 0.00102768 0.000581823 0.00427097 0.00108898 3
0.00539749 -0.000948064 0.00529361 0.000563342 -0.000647322 -0.000661912 0.00624447 -0.00354259 3
-0.00679114 -0.00143621 -0.00153516 -0.00260977 0.00207006 0.00133171 0.000963863 0.00775441 3
0.00415402 -0.00972385 0.00674762 0.000561528 -0.00564897 0.0096394 0.00336706 0.00102788 3
0.00246939 -0.00290883 0.00567404 0.00207078 0.0037323 -0.000904446 -0.00190397 0.000779052 3
-0.00436575 -0.0114633 -0.00830647 0.000227684 0.00017517 0.00506864 -0.00507112 -0.00543404 3
0.00287186 -0.0150668 -0.00249175 -0.00348656 -0.0221487 -0.0109892 -0.00461666 -0.00738849 3
0.004729 -0.00512633 0.0066459 -0.000700045 -0.00362782 0.000542902 -0.00359928 -0.000753727 3
-0.00502092 0.00389245 0.000683653 0.00240553 0.00426386 -0.00285032 0.00585346 0.00419933 3
-0.00566176 0.00449686 -0.000811066 0.00730409 0.00487601 -0.00990242 0.0339887 -0.0267183 3
-0.00359674 0.00292678 0.00510661 0.00408238 0.00359958 0.00362344 -0.000625011 0.000182365 3
-0.00488302 0.0108271 0.00639342 0.00586627 0.00289732 -0.00520924 0.00116456 -0.00137467 3
-0.00540005 0.00578131 -0.00595942 -0.000748272 -0.0100389 0.00124939 0.00283177 -0.00411635 3
-0.00181936 0.00422875 0.00113947 0.00647613 -0.0151415 0.0149735 0.00995007 0.00613181 3
0.00126727 -0.00129396 0.00190493 0.00197377 -0.000428166 0.00325409 0.00533565 -0.00151756 3
0.00448265 0.00125111 0.00458359 0.0026865 0.00273516 0.00291105 0.00607689 0.00332371 3
0.00326778 -0.0062074 0.00301057 -0.000843187 0.00185873 -0.00087679 0.00650554 0.0015622 3
-0.00155279 0.00724647 0.00395469 0.00510131 -0.0204369 -0.0122941 0.0066613 0.00420094 3
-0.000460698 0.00966879 0.006886 0.00290405 -0.00494627 -0.000943648 0.00928281 0.000744395 3
0.00781591 -0.0108468 0.00692938 0.00183515 -0.021792 -0.00669448 0.00111377 -0.00676756 3
-0.00453241 -0.00220737 0.00146408 0.00126768 -0.00692266 0.00567653 0.00415268 0.00745151 3
0.000695099 0.00260684 0.00566297 0.00535056 0.000490871 0.00465916 0.000326388 0.000971177 3
-0.000871332 -0.00227583 0.00163988 0.00458227 -0.00719845 -0.000670736 0.00015588 -0.0002268 3
0.00528143 -0.0135368 0.00261203 0.00166412 -0.0044 0.0041475 -0.00561702 0.00487486 3
-0.00485132 0.00579947 0.00259473 0.00298751 0.00213803 0.00198078 -0.00153384 -0.00367635 3
0.00114602 0.0011637 0.00399784 0.00571232 0.00445602 -2.98827e-05 -0.000799126 -0.00141623 3
0.00079548 -0.0117676 0.000925236 -0.00121038 -0.00184276 8.80778e-05 -0.0116245 0.000398358 3
-0.000257347 -0.00701124 -0.011553 -0.000243559 -0.00103725 0.00873268 -0.0053705 -0.00535403 3
-0.00841988 0.0012857 -0.0145784 -0.000109875 -0.0034817 0.00486399 9.83102e-05 -0.00436927 3
3.64103e-05 0.000823944 0.00586626 -0.00273191 -0.00171966 -0.00319067 -0.00313149 0.00274517 3
0.00358206 -0.0157682 -0.00331353 -0.00414522 -0.0016018 -0.00311829 0.00082793 0.00982957 3
0.00866189 -0.0102883 -0.000677004 0.00305034 -0.00154843 0.00378155 0.00677801 0.00368503 3
-0.00229513 -0.00366383 -0.000347027 0.00118671 -0.00194199 0.000936301 -0.00635151 -0.00252032 3
-0.00302309 -0.00301156 0.00269727 0.00122496 -0.0045376 0.00134385 -0.00283951 0.00487839 3
-0.00102456 -0.0108761 -0.00450032 0.00064264 0.00446494 0.00239409 0.00506121 9.75607e-05 3
0.00412709 -0.00748554 0.00998117 0.00287866 -0.00911458 0.0100364 0.00181675 -0.000373323 3
-0.000349236 -4.24123e-05 0.00877795 0.00273586 0.00453385 0.0127932 0.00245277 0.000723831 3
-0.00806746 -0.00356971 -0.0175686 -0.00472866 -0.000659628 4.15152e-05 0.00759173 0.00381601 3
-0.00199207 0.00605885 0.0031326 0.00305796 -0.0183363 -0.0109565 0.00220909 -0.00448689 3
0.00294928 -0.00197384 0.00474978 0.000943348 -0.00859966 -0.00092518 -0.00274815 0.0017009 3
-0.00226359 0.00310425 0.0083324 0.000969718 0.00401014 0.00546754 -0.00081179 -0.00207439 3
9.55576e-05 -0.00522102 0.00215233 -0.00325766 0.000825897 0.00178681 -0.000307167 -0.00381378 3
-0.00940807 0.00410444 -0.00453593 -0.00188264 0.00418012 -0.00269441 0.00186995 -0.00114106 3
0.00322814 -0.0151365 -0.00512389 -0.00274576 -0.000799341 0.00505979 0.00426593 -0.000827339 3
-0.00402378 0.00544555 0.00264882 0.00426692 -0.00056932 0.000727022 -0.0129699 -0.000743186 3
0.00594565 -0.00635774 0.0136523 0.00360092 -0.016878 -0.0144469 -0.00618683 -0.00626581 3
0.00102405 -0.011223 -0.00809062 -0.000600385 -0.0276736 -0.0127261 -0.00322287 -0.00808312 3
0.000208216 -0.00395361 0.000916554 0.00122251 -0.00115392 0.00258006 -0.00696725 -0.00168075 3
0.00165034 -0.00302907 0.00612553 0.000385398 -0.0029835 -0.000970917 0.000910856 -0.0101583 3
0.00102569 -0.00040676 0.00148612 -0.000413832 0.00562513 -0.00249401 0.00713107 0.000518558 3
-0.0102186 0.0100739 0.00154929 0.00258379 0.00226856 0.000348925 -0.00505333 -0.00134907 3
-0.00372936 -0.00698808 -0.000939796 -0.00187859 -0.00521632 0.0067804 -0.000699778 -0.00577539 3
0.00010359 -0.00686177 -0.000549348 0.00370002 -0.0265543 -0.0163889 0.00159797 -0.00697657 3
0.0032507 0.00108521 0.0107929 0.00173817 -0.00518385 0.00765023 0.00506172 -0.00512399 3
0.00297347 -0.00876489 0.00304012 0.000119372 0.002063 0.00180159 -0.00613465 0.00115657 3
0.00235745 -0.00113893 0.00306633 0.000108821 0.000180226 0.00806565 -0.00240012 -6.36369e-05 3
0.00822896 -0.00451483 0.00928744 0.00175054 0.000182843 0.00590215 0.000242828 0.00166831 3
0.00486827 -0.010254 0.00352801 -0.00105871 0.00298487 -0.00108601 0.000949769 -0.00511413 3
-0.00748062 0.00977508 0.00195833 0.00405179 0.000767633 -0.00322805 -0.00432096 0.00244085 3
-0.0044567 0.0066328 0.000524985 0.00486103 -0.00509227 0.00292455 0.00816299 0.000738413 3
0.0099448 -0.00799928 0.00584327 0.00263729 0.000160251 0.00600421 -0.00199346 -0.00369544 3
-0.0125055 -0.00407093 -0.0130485 -0.000953802 0.00342654 0.00114025 0.00211233 0.00201589 3
-0.00262309 -0.00340995 -0.00946983 -0.00133032 -0.0027489 -0.00203884 0.00350969 0.00149185 3
-0.00804395 0.00832545 0.000355716 0.00351594 0.00598341 -0.00722228 7.87741e-06 -0.00329407 3
0.00677444 -0.00694951 0.00637985 -0.0020995 0.00181253 0.000185682 0.00250848 -0.00406451 3
-0.00841472 0.00464645 0.00113268 0.00661843 -0.00426777 -0.00290657 -0.00139163 0.0033812 3
-0.00277571 -0.000442965 0.00201412 0.00791957 -0.0249456 0.0186584 0.00868892 0.0126399 3
-0.00262247 -0.00056136 -0.00103837 0.000973375 0.000587423 -0.00237289 0.00314307 -0.00430476 3
-0.00156199 -0.00335795 0.0075767 0.000434834 0.00166689 0.000390878 -0.00586309 0.00664855 3
-0.00165676 0.0106823 0.00385363 0.00535264 0.000521809 -0.00173251 0.00158551 -0.00434434 3
-0.00657271 -0.000468692 0.00858488 0.00483983 -0.00234137 0.0013958 -0.0084974 -0.00159552 3
-0.00828547 0.00762016 0.000596564 0.00136904 0.00329739 0.00510829 -0.00544234 -0.00849218 3
-0.00667199 -0.00794639 -0.0146946 -0.00415808 0.000633088 -0.00520636 -0.00339435 1.21175e-05 3
-0.00172003 -0.00650627 0.000525031 -3.75197e-05 -0.0215206 -0.0165223 0.00271891 -0.00740328 3
-0.00514163 0.0049274 -0.00208793 0.00358241 0.00264398 -0.00208573 -0.00473955 -0.00547911 3
-0.00149777 -0.00457409 -0.00251841 0.00560189 -0.00490634 0.00255496 0.00093332 0.00145368 3
-0.00251312 0.00562899 0.00512787 0.00372631 0.00420499 -0.00273028 4.09048e-05 0.00105957 3
0.00257645 -0.0012631 0.00920106 0.000771302 0.00209834 0.00463549 -0.00479319 8.22518e-05 3
-0.00512878 0.00242601 0.0039761 0.0066619 -0.0151449 0.0181028 0.00618118 0.00338252 3
-0.00471158 0.00129391 -0.010476 0.00713278 -0.0355755 -0.0200848 -0.0046829 -0.00852742 3
-0.00531402 -0.00782062 -0.00366552 -0.00265324 0.0014374 0.00130095 -0.00113237 0.00409642 3
-0.0101513 0.00713505 0.00279895 0.00371397 -0.00876788 0.00313734 0.0034311 0.00455192 3
-0.00564971 0.00608776 -0.0103531 0.000860387 0.000333869 0.00204999 0.000690335 -0.00479009 3
-0.00642892 0.00271084 -0.0104577 0.00287965 -0.0038818 0.00259264 -0.000590031 -0.00106143 3
0.00667632 -0.000691703 0.0110649 0.0061972 -0.023507 -0.0147982 -0.00331447 -0.0095357 3
0.00509288 -0.00748244 0.00626067 0.000924994 -0.00377913 2.10052e-05 0.00979401 -0.000355603 3
-0.00312329 0.00106728 0.00266212 0.00129538 -0.000695617 -0.00293386 0.000679515 0.00189723 3
-0.00315134 0.00892775 0.00107472 0.00466001 -0.00479515 -0.00214045 0.00236206 0.00177398 3
-0.00153592 -0.0123472 -0.00251685 -0.00300729 -0.00228103 0.00111639 -0.000896861 0.000645863 3
0.000154345 -0.00131853 0.00424033 0.00370859 0.00606018 -0.00387164 0.00699102 0.000126805 3
-0.00845822 0.00179893 -0.00270893 -0.0010305 0.00187428 -0.000751576 0.00338049 0.00601814 3
-0.00243162 -0.00334214 0.00221016 0.00342228 -0.00346356 -0.00156073 0.00271949 0.00969573 3
-0.00139666 -0.00205728 0.00499997 -0.00119703 -0.000803687 -0.000797607 -0.00793349 0.00724451 3
0.000777837 -0.000789374 0.00271458 0.00186214 0.000285475 0.00277558 -0.00837176 -0.00417793 3
-0.0135837 -0.000815566 -0.0158467 0.00143654 -0.00728721 -0.00165619 0.0103881 0.000918881 3
-0.00296284 -0.00210262 0.00308801 0.00245422 -0.000271806 -0.000114582 0.00196818 0.00607566 3
0.00386725 -0.00507521 0.00519613 -0.0021749 -0.00827253 0.00575746 0.00311204 0.00209323 3
-0.00298827 0.009915 0.00352729 0.0016698 0.00509572 -0.00171065 -0.00359359 -0.0016705 3
-0.00834966 0.00150804 -0.00528979 -0.00057418 0.00206 -0.000187589 0.00369493 -0.00356558 3
0.00507079 -0.00980089 0.00681576 0.00136845 0.000773869 0.000654833 0.00733981 -0.00244027 3
0.00578353 -0.0120005 -5.13218e-05 0.00380783 -0.00429482 6.32244e-06 0.00685956 0.00262142 3
0.00128792 -0.00261008 0.00300337 0.00354762 -0.0128481 0.01176 0.00946864 0.00911347 3
-0.00181157 -0.0133484 -0.00706169 -0.00308905 0.00405109 -0.00136551 -0.00617147 0.00628455 3
-0.0039668 -0.00189035 -0.010742 -0.00167374 -0.00176877 -0.00503515 -0.00226755 0.00430806 3
0.00751198 -0.0105084 0.00571481 0.0016867 -0.0165686 -0.013534 -0.00450198 0.000222853 3
-0.0111928 0.00170177 -0.000975255 0.000745262 -0.00529895 0.0012221 -0.0146677 0.00136637 3
0.00302608 -0.00406418 0.0105862 -0.000882731 0.0021597 0.00157953 -0.015845 -0.0019861 3
-0.000828454 -0.00122461 0.00640447 5.30572e-05 0.00371973 0.00101775 -0.00341838 1.01316e-05 3
-0.0103532 0.00581497 -0.00982411 -0.000602908 0.000787806 -0.00821694 0.00323563 0.00703369 3
-0.00394066 0.00854154 0.00954192 -0.00116933 0.00183338 -0.000236621 -0.00260407 -0.00479902 3
0.00153534 -0.000236822 0.00556994 0.00242607 -0.0212851 -0.0165507 -0.00283137 -0.00244588 3
0.00630769 -0.00931299 0.00678629 -0.00377375 0.000500477 0.000100679 0.00508991 0.00397382 3
0.00535116 -0.00455234 0.00452931 -0.00201311 0.00235241 0.00186464 0.00487154 0.00274545 3
-0.00578652 0.00864106 0.0025202 0.00362444 -0.000900821 0.00537219 -0.00277373 -0.00349767 3
-0.00566059 -0.00734475 -0.0101752 -0.000170559 -0.0154811 0.0109382 -0.0030026 0.00800531 3
0.00129065 -0.00127002 0.0067922 0.0034678 -0.0049039 -0.00375691 0.00314291 -0.00515571 3
0.00329223 0.00643416 0.00240758 0.00322262 0.00250643 0.00059888 0.00275559 -0.00187443 3
-0.00393896 -0.00581329 -0.00265557 0.00216967 -0.0117959 0.000943132 0.00297267 -0.00240757 3
-0.00607008 0.00930779 0.00238092 0.00469536 0.000797118 0.00215179 0.00276955 -0.000395043 3
0.00110365 -0.00072111 -0.00526767 9.6776e-05 0.00917138 0.000165756 0.0106576 0.00290553 3
0.000463879 0.000387674 0.00430872 0.00469956 -0.0147982 0.014841 0.00225527 0.00347466 3
-0.00640921 0.0040484 -0.00294933 0.00337492 -0.000364094 -0.00723264 -0.00131272 0.000338756 3
-0.00149941 -0.000483511 0.00492144 -0.00115703 0.0054319 0.000273112 0.000264877 0.00773865 3
-0.00941769 -0.000697759 -0.00999234 -0.00115844 -0.00261179 -0.00233919 -0.000945494 0.0086548 3
-0.00828212 0.00610267 -0.00572099 -0.00082982 -0.00100352 -0.00380839 -0.00943301 -0.00503636 3
-0.00512884 0.0112331 0.00358281 0.000824194 -0.00257251 0.00143278 0.00404063 -0.00155438 3
-0.00670543 0.00895053 0.00699592 0.000332695 0.00248858 0.00046299 -0.00519402 -0.00873059 3
-0.00261965 -0.00269338 0.00179706 0.00247832 -0.0111305 0.0126375 0.00411697 -0.000982281 3
-0.00247598 -0.00521961 -0.0074255 0.000912346 -0.000856724 -0.000359402 0.006336 0.00204869 3
0.049285 0.0107536 -0.0433107 0.0610704 -0.00291539 0.00525652 -0.00134005 0.00487299 3
0.00671865 -0.00605085 0.00733415 0.000807324 -0.00195122 0.00624376 -0.000308125 -0.00411947 3
0.000345362 -0.0018032 0.00119508 0.00168451 -0.00143273 -0.00252452 -0.00254172 -0.00540541 3
0.00458355 -0.0101357 0.000424832 0.00416237 -0.0129152 0.00875611 0.00714051 0.00594655 3
-0.00343278 -0.0130364 -0.0208704 0.000155559 0.00251727 0.000334377 0.002094 0.00839995 3
0.00126181 -0.00530485 0.00469633 0.00375498 -0.0121556 0.0186724 0.0069431 0.000665984 3
-0.00315327 0.0110962 0.00414214 0.00456815 -0.00165097 -0.00650807 0.00458154 0.00461407 3
0.0034725 -0.0123019 0.00131755 -0.00456928 0.00828399 0.00325728 0.000573904 0.000342033 3
-0.00943675 0.00013682 -0.00769724 -0.00233038 -0.00309709 0.0070891 0.00526793 -0.00565869 3
-0.00804067 0.00320961 -0.00477298 0.00423696 -0.0116112 0.00973465 0.0087447 0.00770002 3
-0.00666352 0.00986543 0.00327378 0.00902135 -0.0047295 0.0129883 0.00180782 -0.000460113 3
-0.0076014 0.00262926 -0.00620528 0.00328327 -0.00216953 0.00506315 -0.0010075 -0.00236609 3
-0.00089591 -0.00638534 -0.0046578 0.00388754 -0.00526434 0.0115011 0.000114343 -0.00663709 3
-0.0107973 0.00121276 -0.0121786 0.00303925 0.00237552 -0.000539181 0.00290218 -0.0040124 3
0.00298842 0.000883878 0.00696695 0.00172792 0.00556847 0.00379602 -0.00254618 -0.00589429 3
-0.0026671 -0.000768718 -0.000108095 -0.00224853 -2.74939e-06 -0.000539101 -0.00049699 0.000314101 3
0.00143369 -0.00114204 0.00271085 0.0041159 -0.000756921 0.000256377 -0.000721339 0.00243403 3
0.00169424 -0.0137606 -0.00638155 -0.00092471 -0.00139483 0.000546757 0.00444848 0.00296402 3
-0.00219487 0.00148809 0.00561794 0.00446076 -0.00808499 0.00197628 0.00547377 -0.000627098 3
-0.00694708 0.00820719 0.00436845 0.00261561 0.00549083 0.000465281 -0.00186606 0.0013988 3
0.00557742 -0.00887442 0.00644725 0.00353522 -0.0321689 -0.0169988 -0.0059021 -0.00200435 3
-0.0054293 0.00839493 0.0030331 0.00310222 -0.00692236 0.00674844 0.00261382 -0.00368201 3
-0.00279138 0.0105046 0.00318971 0.00448227 -0.00172143 -0.00572143 0.00366259 -0.00326297 3
0.00432679 -0.00190041 0.00688246 0.00458084 -0.00339544 0.00288462 -0.00819998 -0.00265821 3
-0.00710535 0.0053026 -0.0053789 0.0054177 -0.00184057 0.000910502 0.00773769 0.000985389 3
-0.00953851 0.00924993 -0.000607978 0.00444267 0.00184139 -0.00582084 0.00595031 -0.00418076 3
0.00592895 -0.0146899 -0.00227797 -0.00226378 -0.0205761 -0.0129891 -0.00457512 -0.00029512 3
-0.000438412 -0.00548292 0.00228077 0.00514089 -0.00186835 0.0028286 -0.0070297 1.37792e-05 3
-0.00743652 0.00677473 0.00149063 0.00240975 0.00114871 -0.000571427 0.00172577 0.000453822 3
0.000782782 0.00321 0.00443801 0.00152925 -0.0149563 -0.0103779 -0.00477539 -0.00360353 3
0.00866361 -0.00817788 0.00439334 -0.000424045 0.000122914 -0.00253638 -0.00758477 -0.0022957 3
-0.00831984 0.00294514 -0.00316399 0.00375875 0.00127464 0.00281276 0.00214304 -0.000596408 3
-0.00372131 0.00509288 0.00237664 -0.000810197 0.00627806 -0.0103038 0.00284094 0.0089739 3
0.00234671 -0.0035221 -8.89399e-05 0.00591047 0.00376717 0.00334758 -0.000808169 -0.003188 3
-0.00203937 -0.00533314 -0.00802198 -0.00294294 0.00188033 0.00464633 0.00259933 0.0055919 3
-0.00173093 -0.000276974 0.0106429 0.0111065 -0.0581427 0.0446763 0.0276437 0.0232379 3
-0.00315173 -0.00498705 -0.00100422 0.0049418 -0.00502197 0.00316465 0.012874 -0.00102706 3
-0.0035829 -0.00352517 -0.00124866 0.00136542 0.00164596 0.00297992 0.0074713 -0.000372475 3
-0.00145561 -0.0103363 0.0012427 -0.0052281 -0.00145471 -0.000752236 -0.00748902 -0.00225267 3
0.000538404 -0.000651842 0.00940904 0.00185122 0.00266548 -4.87252e-06 0.00118896 0.000189443 3
-0.0051321 0.00986504 0.0076369 0.000736333 -0.000386335 -0.00236709 0.00316187 -0.010092 3
-0.000158822 0.00115953 0.0096321 0.00454108 0.00533752 0.00183072 -0.000146184 -0.000659016 3
0.00143498 0.00967227 0.00556297 0.00668727 -0.0021956 -0.000111746 0.00939493 0.00559331 3
-0.00109209 0.00552705 0.00728414 0.00165941 0.000191299 0.00603451 -0.00274389 0.00488599 3
0.00356278 -0.000883398 0.00573162 0.00066945 -0.00747785 -0.00032437 0.00365939 0.00420836 3
-0.00157253 0.000247767 -0.000505534 0.00196203 0.000702999 0.00521931 -0.0017019 0.000987687 3
0.0055987 -0.0101836 0.00731261 0.000534048 -0.00101844 0.00417156 0.000911979 0.00436077 3
0.000597612 0.000302133 0.00952747 0.00413425 0.00134136 -0.00330386 -0.00244206 0.00590248 3
-0.00144266 -0.0101667 -0.0124865 -0.00123106 -0.00436928 0.0124842 -0.00315107 -9.10339e-05 3
0.00101949 -0.00255142 -0.00394203 0.0018496 -0.00195068 -0.000990583 0.0051603 0.001913 3
-0.0077097 0.00891711 0.0030492 0.0099061 -0.0178831 0.00860189 0.00951065 0.00495175 3
-0.000601036 0.00104688 0.00440046 0.00427915 -0.0090198 0.0071444 0.00646902 0.00403664 3
0.00224348 0.00835272 0.00334146 -0.0136627 -0.000710047 0.00886834 -0.000518363 0.011931 3
-0.00627686 -1.50285e-05 -0.00808386 0.00101476 -0.000686293 -0.00750095 -0.000541967 0.00272466 3
-0.000664479 -0.00144301 0.004534 0.00109171 0.00535499 0.00144066 0.00356053 -0.00865967 3
-0.00316399 -0.00696018 -0.00565767 -0.00194517 -0.00059926 0.00724541 -0.00350224 0.00518882 3
0.000795398 -0.0121522 0.000169162 -0.00299855 -0.000818795 0.00194241 -0.00103376 -0.00237283 3
0.00153283 -0.000330379 0.000433956 0.00649914 -0.00319528 -0.00133633 -0.00585213 -0.000969151 3
-0.00165477 -0.000781007 -0.00153214 -0.00210565 -0.0135664 0.00654702 -0.00334104 -0.00353625 3
0.00259325 -0.00234435 0.0034085 -0.000439412 0.00367415 0.00443484 0.00431019 0.00151146 3
-0.00307242 -0.0091422 -0.00487384 0.00234217 -0.00851382 0.00433708 0.00887037 0.00625025 3
-0.0039844 -0.00629788 -0.00375987 0.00111059 -0.0114978 0.00326773 -0.00731798 -0.00650094 3
-0.00271817 -0.0031974 -0.000543528 0.00575844 -0.0157296 0.0100952 0.00977028 0.0005194 3
-0.00795271 -0.00406939 -0.0138314 0.00326426 -0.0154693 0.00834151 0.00752133 0.000449289 3
0.0069299 -0.00652633 0.00906918 0.00164685 0.00231354 0.00323191 0.00535686 -0.00156621 3
0.000589996 -0.00140255 0.00761851 0.00325412 -0.0054348 -0.00170047 -0.00729939 -0.0001379 3
-0.000182474 -0.00127267 0.00389942 0.00373931 -0.00130866 -0.000557496 -0.00258364 -0.000621649 3
0.00634118 -0.0082923 0.00762084 0.000872191 0.00599592 -0.0085772 -0.00243046 -0.00161603 3
-0.00203164 0.00422712 0.00708973 0.00273369 0.00319322 -0.0017675 -0.00139202 -0.0011827 3
0.000727296 -0.00080891 0.0026023 0.00144937 -0.00246958 0.00462399 -0.000594466 0.000670036 3
-0.00308938 0.00705517 0.000555865 0.00211226 -0.00499006 -0.000561038 0.000838475 -0.0025772 3
-0.000305931 0.0012486 0.0090147 0.0060817 -0.0062564 0.00930738 -0.00281515 0.00483582 3
0.0944666 0.00645633 -0.0782658 0.115328 0.0128476 -0.00486269 -0.00493133 0.00131916 3
6.42858e-06 -0.000660277 0.00553361 0.0042527 -0.000240648 -0.00450049 -0.00936246 0.00110413 3
-0.00687996 0.00834619 -0.00483367 0.00162124 0.00467251 0.00246404 -0.00149805 -0.0111375 3
0.00563359 -0.0164595 0.000999602 -6.83656e-05 -0.000569446 0.000949049 -0.00496847 -0.00307479 3
0.00270215 -0.0031587 0.00226118 0.00202612 0.00822186 -0.0054065 0.00418549 -0.00122188 3
0.00289866 -0.000736548 0.00823039 0.0013845 0.000916766 0.00020373 0.00794014 -0.0050456 3
-0.00418123 0.0101134 0.00354431 0.00539537 0.00381573 -0.00532943 0.000969512 -0.00554717 3
-0.0102843 -0.000182833 -0.0112154 0.00107837 -0.00800758 8.35284e-05 0.00276444 0.00797033 3
-0.000519544 -0.000913415 0.00461586 0.00311029 0.000376333 -0.00409646 0.00516578 -0.00586883 3
0.00388882 -0.00632499 0.000773034 0.00244895 -0.00278954 0.0055816 0.00142953 0.00198026 3
0.00807352 -0.00937345 0.000239853 0.00404869 0.0033757 0.000252203 0.0046562 0.00175588 3
-0.00496313 0.00628639 0.00311414 0.00361123 -1.07272e-05 0.00164074 0.0028348 -0.00701612 3
-0.00212419 -0.00171728 0.00269971 0.00377053 -0.0276226 -0.0215673 -0.00345152 -0.00515978 3
0.0036037 0.00181469 0.00527379 0.00616898 -0.0175298 0.00146221 0.0128827 -0.00188789 3
-0.00180459 -0.00314196 0.00204123 0.00153089 -0.00137995 -0.00177752 0.00297386 0.00331605 3
-0.00192169 0.00449853 0.00282029 0.000354459 0.00185105 -0.00207227 0.00440317 0.00627695 3
-0.00352395 -0.00869251 -0.0110706 -0.0032836 0.00245874 -0.00193108 0.00697614 0.00385103 3
-0.00493845 -0.00134349 0.00490065 3.19815e-05 0.000252557 0.0014946 -0.00156478 -0.00338204 3
0.000910746 -0.000445183 0.00503998 -0.000771426 -0.00257476 0.00581191 -0.00436459 -0.00492493 3
-0.00244878 -0.00349142 0.00216524 0.00178767 -0.000573139 0.00262876 -0.0153134 -0.00390432 3
-0.00676647 0.00698716 -0.000690924 0.0049125 -0.000938711 -0.0022694 -0.00713225 0.00405314 3
0.0214033 0.00173101 -0.00408835 0.0211071 0.00771717 0.00355616 -0.000600243 -0.00252908 3
-0.00639816 0.00671694 0.00292486 0.00359012 -0.000306789 0.00224494 -0.000442084 0.0070903 3
-0.00393536 0.00930455 0.00542278 0.00480577 -0.00202385 0.0064319 0.00384701 0.00201786 3
0.0030938 0.000334452 0.00534027 0.00363446 -0.00202298 0.00448507 0.00386976 -0.0051666 3
0.00340159 0.00280231 0.0024131 0.00215306 -0.00102653 -0.00203311 0.00258564 0.00106574 3
0.00755746 -0.00758681 0.00875404 0.00192398 -0.000409247 0.00649528 0.00229588 3.15211e-05 3
-0.00996799 0.00182625 -0.00558628 0.00126407 0.00169492 -0.00310534 -0.00593192 -0.00208611 3
0.00383447 -0.0116845 0.00185202 0.0023693 -0.0229923 0.0156451 0.000665051 0.0046215 3
-0.00348058 -0.00626148 -0.0017685 0.00272584 -0.0168029 -0.0166397 0.00431828 -0.00505138 3
-0.00409795 -0.00831001 -0.00764784 -0.00434719 -0.000141976 0.000401595 0.00321961 -0.00336135 3
-0.00350503 0.0132146 -0.00402612 0.00163879 -0.00952548 0.00883936 0.00488822 0.00825937 3
-0.00857189 0.00758621 -0.00363594 0.00405285 0.000571845 0.00498979 -0.00331402 -0.00315191 3
-0.0104985 -0.0113225 -0.0122878 -0.00165102 -0.00309274 0.00180642 -0.00322592 0.00164117 3
0.000392981 -0.00142409 0.00913419 0.00526565 -0.0170921 0.0204654 0.00260096 0.00577912 3
0.00270742 -0.0020499 0.0065282 -0.00107859 -0.00514586 0.00277618 -0.00494034 0.00245965 3
0.0033567 0.000878044 -0.00130867 0.00498898 -0.00471118 -0.00378018 0.00554079 -0.000956027 3
-0.00176068 -0.00476445 -0.00311473 0.00209186 -0.00186359 -0.0023367 0.00310703 0.00269573 3
-0.00502697 0.00515427 -0.0065203 0.00466968 -0.00883061 0.00725599 -0.00245849 -0.000651232 3
-0.00829309 -0.0103828 -0.0191864 0.00259344 -0.00737447 0.0090687 -0.00321301 0.00197622 3
0.00353615 -0.00630677 0.00842203 -0.000425851 0.00106076 0.00463528 0.00490933 0.00257401 3
-0.00618847 -0.0125768 -0.0155267 -0.00373754 0.000461012 -0.00171829 0.00695061 0.000377205 3
0.00130545 -0.00483066 0.00516415 0.00330125 0.000455444 -0.0014272 0.00370396 -0.000273871 3
-0.000120939 0.00105367 0.00641796 0.00520009 -0.00284938 0.00240694 -0.00776276 0.00559322 3
-0.00537432 0.0122959 0.00307692 0.00840083 -0.00908772 0.0770474 -0.0306158 -0.02168 3
-0.0103747 0.000978865 -0.00932863 -0.00179676 0.00774794 -0.00350866 0.00421492 0.00410117 3
0.00306063 -0.0131814 -0.00971422 0.00148289 -0.00743087 -0.0022903 -0.00394979 -0.00226341 3
0.000971537 0.00123806 0.000353608 0.000780576 0.00109472 0.00109075 0.00341564 0.000476904 3
0.0056 -0.00531561 0.0058969 0.000390913 0.00217007 0.00111109 -0.00431426 0.00169648 3
-0.00414687 0.00384809 -0.00310911 0.00395961 0.000124452 -0.00171703 0.00254965 0.00822396 3
0.0028065 -7.01397e-05 0.00251932 0.00271303 -0.020861 -0.0171767 -0.00825403 0.0069131 3
-0.000478593 -0.00820217 0.00596329 0.000745613 0.000186361 -0.00372134 -0.00362508 -0.00557452 3
0.00558164 -0.00963057 -0.000339097 0.000160417 -0.000421029 -0.00167756 0.000970833 -0.00422006 3
-0.00564568 -0.00658986 -0.00625814 -0.00303825 0.00288386 -0.00257635 0.00268778 -0.00241836 3
-0.00758453 0.00626316 -0.00331714 0.00211058 -0.00086686 -0.000896654 0.00370553 -0.00174776 3
-0.00317307 0.00861581 0.0059477 -0.00125552 0.00206282 -0.00346387 -0.00481599 0.00489633 3
0.0010485 -0.00891529 0.0043809 0.00105432 -0.0102596 0.00726403 0.000303672 0.000418551 3
0.00636506 0.00336833 0.00237464 0.0104841 -0.00263732 0.00048348 0.00236839 -0.00357417 3
-0.00396399 0.00771452 0.001323 0.00143446 0.000449185 -0.00421779 0.00773389 0.00536629 3
-0.00395561 0.0107515 0.00370794 0.00478505 -0.00693004 0.00275303 8.3786e-05 0.000318436 3
-0.00733915 0.00856043 0.00306058 0.00460127 -0.000360847 -0.00387993 -0.0042236 0.00909838 3
-0.00110728 0.00617024 -0.00365366 0.0022112 0.00349874 0.000171288 0.00121746 -0.00248349 3
-0.00473182 0.0072545 0.00250471 0.00489161 0.00198836 -0.000949752 -0.000160053 -0.00107683 3
-0.00120354 -0.00481781 0.00506796 0.00134959 0.00141191 0.00615195 -3.26124e-05 0.00100057 3
0.00680494 -0.00910964 0.00391674 -0.00366286 -0.00165462 -0.00196103 -0.00772151 0.00247797 3
0.00794235 -0.00952984 0.0189482 0.00469696 0.0110577 0.00634457 0.0152919 -0.0270544 3
0.00318726 -0.0071553 0.0100445 0.0024279 -0.00764126 0.00244399 0.00446971 0.0030893 3
0.00149461 -0.012976 -0.000981289 -0.00207416 0.00039756 0.00531286 0.00351204 -0.000283806 3
0.00291805 -0.00191297 0.00306686 0.00268018 -0.000515514 -0.00386043 0.00460255 0.00492155 3
0.00421716 -0.00614975 0.00958601 0.00153324 0.000810922 -0.000410624 -0.00117498 0.00105625 3
9.82835e-05 -0.000633174 0.00344246 4.11556e-05 0.00299171 0.00391046 -0.00793576 -0.000816953 3
0.00623232 -0.00923942 0.00781892 0.0011037 -0.0194677 -0.00932504 -0.00486441 -0.00691617 3
-0.00256025 -0.00430961 -0.000787988 0.00102969 -0.0043496 0.00154764 0.00524573 -0.00541611 3
-0.000705367 0.00162534 0.00546427 -0.00136946 -0.00371069 -0.00343861 0.0019053 0.00305323 3
-0.000691219 -0.0103223 0.00628089 -0.000519082 -0.00120568 0.00120582 -0.00598027 -0.00609779 3
0.003317 0.00180778 0.00932105 -5.37136e-05 0.00169867 -0.00623677 -0.00759589 0.0057098 3
0.00138357 0.0039831 0.00338771 0.00223168 0.0011807 0.00337658 -0.00427658 0.00301095 3
0.000729387 -0.00190007 0.000546109 0.0043177 0.00490828 0.00860446 0.00289038 0.0025149 3
0.00375921 -0.00379263 -0.00397787 0.000995992 -0.00382846 0.00307697 0.000563088 0.000820349 3
0.0134936 0.00745059 0.00116407 0.0124852 0.00119539 -0.00183228 0.000979406 -0.00339817 3
0.00115736 0.00246464 0.0060791 0.0012624 0.00314689 0.00232793 -0.00689876 -0.00230388 3
-0.00239997 0.00144607 0.00402977 0.000397377 -0.000611732 0.00013398 -0.00315715 0.0045449 3
-0.00119483 0.000346481 0.000290653 0.00367236 0.00276001 -0.0019384 0.00735328 -6.25422e-05 3
-0.00388673 0.00683711 0.000832606 0.000107582 -0.00158946 -0.000686185 0.00966598 0.0075488 3
-0.00731138 0.00201503 -0.00657788 -5.56612e-05 0.00514242 0.00119068 -0.00139781 0.000154238 3
-0.00884183 0.0189121 0.0105257 0.0123474 -0.00437696 -0.0359324 -0.0259069 0.011348 3
-0.00674803 0.00339592 -0.00583859 0.00066906 0.00226073 0.000261395 0.00121983 0.00163716 3
0.00975141 -0.00308334 0.00847462 0.00180418 0.00357245 -0.00334695 -0.00429439 -0.0013041 3
0.0021907 -0.00321436 0.00388622 0.000538391 0.00105261 0.000810195 -0.00771971 -0.00252207 3
-0.00243798 -0.000505229 -0.00161635 0.000787455 0.00650274 0.00168703 -0.00146333 0.00308486 3
-0.00534215 0.00147235 0.00431967 -0.000359639 0.00189799 -4.1957e-05 -0.00300085 -0.0037756 3
-0.00434408 0.00750248 0.00215992 0.0039545 -0.00119836 -0.00359245 0.00119487 -0.00265542 3
-0.00202376 0.000484558 0.00603244 -0.000800995 0.00637168 0.00307675 0.00269974 0.00201345 3
0.00448205 -0.00316253 0.0086259 -0.0019487 0.00302082 -0.00259166 -0.00164792 0.00101095 3
-0.000384971 -0.0124078 -0.00674426 -0.00577572 0.000369951 -0.000567865 -0.0072374 -0.00169441 3
-0.00596587 0.00152133 -0.00878393 0.002124 0.00240293 0.00562656 0.00296246 0.00394824 3
0.00158169 0.0032563 0.00691924 0.00344081 0.00341195 0.000214719 -0.00468473 0.000755023 3
-0.0012789 0.00882498 0.00144157 0.0043522 -0.00352354 -0.00475126 0.00277199 -0.00177403 3
-0.000117036 0.00226072 0.00709797 0.000497197 0.000125307 6.99412e-05 0.00213763 -0.00181539 3
-0.00952354 2.00536e-05 -0.0153816 -0.00038238 0.00151192 -0.00678099 0.00522311 0.000972491 3
-0.00421438 -0.00428268 -0.000165543 0.000140142 0.00292505 0.00174334 -0.00318146 -0.00351072 3
0.00534226 -0.00271681 0.00267672 0.00331688 0.00245243 -0.00219097 0.00348201 0.00188378 3
-0.00668724 0.0144 6.97714e-05 0.00611596 -0.00411454 0.0725013 -0.0352981 -0.0269199 3
-0.00226566 -0.000988214 -0.000600831 -0.000883134 8.98637e-05 -0.00187683 -0.00196543 -0.00391653 3
-0.00887144 -0.00534957 -0.026162 0.00498275 -0.001091 -0.00462065 0.00378955 -0.00122137 3
-0.00600991 0.0113386 0.00218147 0.00173059 0.00197899 0.00057976 -0.000513333 -0.00198455 3
-0.013562 -0.00342439 -0.0212756 -0.00123678 -0.00261551 0.00140775 -0.0117529 -0.00551033 3
-0.00652805 0.00675237 -0.00812063 0.000151614 0.000257482 0.000722121 0.000318674 -0.00489734 3
0.00555324 -0.0046573 0.00335359 0.00196832 0.000371244 0.00278512 -0.00197007 1.27522e-05 3
0.00644961 -0.00455629 0.00554139 0.00238668 0.00260339 -0.00042598 -0.0023079 0.00419232 3
0.00114343 0.00194319 0.00823786 0.00185941 0.00599102 0.00475298 -0.00402637 0.00114972 3
-0.00252214 0.00169528 0.00261218 0.000723109 0.004453 0.00157879 -0.000123729 -0.00513425 3
0.00381037 -0.00558845 0.011393 0.00123282 0.0039295 -0.00645633 -0.00389313 -0.00356748 3
0.00110145 -0.00518729 0.000966972 0.00476912 0.00345526 -0.000233039 -0.0118899 0.00193906 3
-0.00668645 -0.00121115 -0.00438508 0.000557665 0.00349124 -0.00306251 0.00467818 0.00198586 3
-0.00443009 0.000897656 -0.000237405 0.00248072 0.00486604 0.00271992 -0.00378213 0.00292515 3
-0.00756552 -0.000655005 -0.00924518 -0.00541355 0.00333492 -0.00404659 -0.000403873 0.00706565 3
-0.0011999 -0.00140452 -0.00404846 -0.00188862 0.00061177 -0.00442288 0.00347615 0.00519655 3
-0.00525974 -0.00954489 -0.0135385 0.000823512 0.00667886 0.00113268 0.00117242 -0.000140708 3
0.000625013 -0.000292439 0.00143205 0.00122459 0.00227947 0.00387867 0.00662878 0.00589887 3
0.000564712 -0.00617094 -0.0018214 -0.000553081 0.00478068 -0.00397806 -0.00601692 0.000249586 3
0.0032156 0.00238178 0.00332419 0.00108163 0.00154635 0.000173814 0.00141585 -0.00153906 3
-0.00890482 0.00276868 -0.0053041 0.0015781 0.00362482 0.00569733 -0.00619656 -0.0007956 3
0.00160303 0.00251932 0.00388885 0.00531973 0.000358018 0.00165486 0.0029782 0.00305076 3
-0.0076264 6.48186e-06 -0.00377911 -0.00343077 0.00303767 0.00758031 -0.00069989 -0.00797647 3
-0.00248662 -0.000282233 0.00649655 0.000212406 0.00905718 -0.00913937 0.00805962 0.00249373 3
-0.00235902 0.00660441 0.00763223 0.00271242 0.000317858 0.000725083 -0.00687039 -0.00571587 3
-0.00629185 -0.00313417 -0.00228506 -0.0014506 0.00601864 -0.000898469 -0.00156799 0.0021113 3
